45.8,14.2,50.5,86.9,103.1,88.4,73.6,69.5,69.4,67.4,41.4,15.3,17.4,59.5,101.7,87.5,55.3,25.6,16.1,6.7,14.5,42.4,70.3,69,61.3,57.2,69,80.8,106.8,144.7,182.6,131.6,72.2,40.1,76.3,112.6,93.3,45.7,0.3,6.9,13.5,15.6,11.5,7.3,31.9,63,81,47.3,13.5,22.2,59.4,96.6,87.8,78.9,82.9,106.1,129.3,166.5,207,236.5,226.8,217.1,221.9,235,249.1,281.2,313.2,353.8,403.9,454,505.7,557.5,595.1,604.6,614,665.5,729.3,780.8,786.6,792.3,817.1,851.7,896.7,1028.9,1161,1347.4,1576.6,1805.3,2008.1,2210.9,2319,2324.2,2329.4,2296.6,2261.7,2137.2,1887.5,1637.7,1606.6,1602,1628,1705.6,1783.2,1789.8,1784.5,1804,1871,1937.9,1984.4,2026.9,2042.4,2004.7,1967.1,1943.2,1921.9,1907.6,1906.3,1905.1,1884,1859.6,1842.9,1838.9,1834.9,1858.6,1885.4,1901.4,1902.5,1903.5,1893.3,1882.6,1871.7,1860.6,1851.2,1894.9,1938.6,2040.6,2185.4,2331.2,2484,2636.7,2756.8,2861.7,2951.1,2991.6,3032.2,2986.1,2919.3,2849.6,2775,2700.5,2574.3,2445.6,2334.6,2239.2,2143.7,2047.8,1951.9,1852.5,1751.8,1680.8,1677.6,1674.4,1639.2,1600.7,1573.8,1557.9,1550.1,1600.2,1650.2,1685.2,1714.9,1725,1700.6,1676.1,1649.4,1622.7,1608,1600.6,1602.5,1631.1,1659.7,1673.7,1686.1,1727.9,1793.7,1859.6,1926.4,1993.1,2169.9,2364.4,2688.3,3128.8,3659.6,4560.9,5462.2,6520.9,7602.8,8461.7,9139.5,9641,9578.3,9515.6,8919.6,8283.2,7473.2,6560,5647.9,4738.1,3846.8,3418.7,2990.6,2690.1,2431.5,2224.7,2075.8,1948,1906.5,1865,1831.4,1798.3,1753.7,1703.3,1657.1,1617,1590.8,1639.5,1688.3,1812.3,1943.8,2089.3,2241.7,2376.4,2487.9,2617.7,2817.9,3018.1,3180.2,3341.7,3456.1,3556.2,3571.7,3519,3456.9,3377,3281.7,3097.4,2913.2,2731.1,2549.1,2435.4,2342.6,2243.3,2139.4,2079,2081.4,2093.9,2138.7,2204,2522.5,2841.1,3317.8,3808.9,4501.7,5256.6,5952.7,6612.4,7101.3,7403.8,7478,7117.5,6715.8,6165,5590.5,4790.5,3990.4,3680.9,3381.9,3270,3186.2,3101.4,3016.4,2947.6,2886.9,2804.9,2707.3,2598,2476.7,2323,2123.3,1982.7,1956.7,1901,1766.6,1635.4,1516.4,1403.1,1319.8,1240.9,1197.3,1157.8,1174.3,1188.5,1137.4,1086.5,1076.7,1066.9,1064,1061.2,1078.7,1097,1006.7,911.1,880,852.4,879.8,910.1,902.1,892.5,919,946.6,956.3,965.7,961.4,957.1,951.8,940,868.2,810.8,839.7,859.7,842.9,819.8,777.9,751.9,759.4,759.2,746.7,744.4,753.7,741.5,712.1,734.5,785.6,790.7,779.7,712.7,635.3,614.3,594.8,558.8,533,550.2,555.2,534.5,517.6,505.2,539.4,604.6,690.4,783.1,789.7,793.1,889.2,962.4,959.3,955.6,950.7,902.1,822.4,745.4,669.4,591.5,516.8,458.9,440.6,490.2,398.4,204.4,181.1,203.4,340.8,429.4,375.7,408.5,530.3,501.8,419.6,423.4,422.5,403.8,470.9,621.5,625,596.5,760.9,819,665.3,598,583.2,683.6,769.3,764.3,729.6,667.9,715.7,782.7,840.1,848.6,805,706.6,630.8,743.9,720,559.2,544.3,571.1,659.1,609.6,457.5,494.8,521,498.4,543.9,611.2,604.6,620.7,661,572,514.2,574.1,662.9,766.8,891.9,867.1,718.4,698.3,714,775.8,622.9,573.4,834.9,779.5,650.4,605.2,595.5,595.7,567.3,527.2,506.4,659.8,759.8,813,758.8,660.3,554,582.4,600.1,600.6,542.4,501.5,484.8,526.2,561.1,537.7,382.2,457.6,506.4,453.7,484,645,871.9,653,629.5,662.7,586.7,404.1,258.4,196.2,422.9,465.1,343.6,41.4,380.8,422.5,137.2,682.2,708.1,695.7,915.5,399.4
78.6,76.2,78.3,80.4,89.6,109.8,130,122.3,104.2,86.5,72.9,59.3,64.9,98.1,131.4,141.4,144.1,146.4,146.6,146.7,121.1,65.6,10,15.7,34.8,49.4,43.8,38.2,47.2,68.4,89.6,93.2,95.1,89.7,66.2,42.6,40,48,54.9,35.2,15.4,24.1,71.3,118.6,99.5,65,34.5,20.2,5.8,9.5,25.5,41.4,73.4,105.5,121.5,113.6,105.6,146.8,199.7,243.3,253.9,264.4,299.3,348.2,392.3,352,311.7,339.5,442,544.5,551.4,548.2,560,601.4,642.7,696,752.7,806.9,851.7,896.6,934.4,968.5,1013.3,1147.5,1281.8,1468.2,1695.7,1921.7,2060.8,2200,2310.6,2390.3,2470,2399.1,2319.5,2187.2,1980.9,1774.6,1727.8,1700.3,1707.5,1773.6,1839.7,1874.2,1903.3,1945.8,2013.8,2081.8,2095.4,2098.6,2097.3,2087.4,2077.5,2042.2,2002.1,1984.4,2009.1,2033.7,2019.3,1998.5,1982.9,1976.2,1969.4,1921.2,1868.3,1844.6,1860.9,1877.3,1885.6,1893.6,1915.5,1952,1988.9,2039.4,2090,2167.9,2266,2368.9,2505,2641,2728.8,2794.3,2861.7,2935.3,3008.9,3022.9,3022.7,2972.9,2841.5,2710.1,2592.1,2474.8,2350.3,2219.4,2092.1,1990.6,1889,1803.7,1725,1666.1,1652.5,1638.8,1616.9,1594.1,1574.4,1557.6,1549,1599.5,1650.1,1617.5,1555.9,1537.9,1597.1,1656.3,1669.1,1681.3,1680.2,1670.8,1673.4,1710.7,1747.9,1739.9,1727,1761,1833.7,1895.3,1913.4,1931.5,2129.9,2357.2,2715.5,3191.9,3759.6,4702.3,5645.1,6565.3,7482.2,8288.9,9006.1,9552.7,9553.5,9554.2,8923.3,8244.6,7423.1,6516.8,5614.5,4720.5,3845.2,3436.7,3028.1,2690.2,2375.5,2172.9,2095.9,2010.2,1889.4,1768.7,1722.3,1681.6,1674.3,1683.8,1691.1,1694.9,1706.3,1759.2,1812,1869.4,1927.3,2008.7,2101.7,2243.9,2450.2,2660,2883.6,3107.1,3169.7,3229.3,3379.1,3556.7,3636.1,3636.2,3595.8,3479.4,3352.4,3165.3,2978.2,2794.4,2610.7,2496.8,2404,2342.6,2303.4,2263.5,2222.5,2194.9,2210,2237.2,2414.3,2591.4,3173.7,3792.8,4580.4,5420,6114.9,6720.6,7081.9,7176.7,7207.1,7115,6887,6167,5452.7,4792.1,4131.6,3776.9,3428.7,3289.3,3181.3,3109.1,3047.8,2991.4,2937.5,2859,2762.5,2646.8,2511.2,2362.2,2194.3,2055.2,1972,1865,1695.2,1558.3,1543,1517,1434.2,1355,1305.6,1256.3,1209.5,1164.7,1175.2,1185.5,1125.1,1064.8,1063.9,1064.2,1076.5,1089.2,1007.9,922,923.1,928.8,946.5,964.9,977.1,989.2,946.5,902.3,974.5,1043.5,945.9,855.2,878.9,898.3,877.9,861.8,872.1,880.9,883.3,883.8,878.9,879.8,893,912.5,941.8,913.1,818.6,783.2,795.5,824.7,863.3,808.3,720.6,676.8,641.1,621.1,602.1,586.2,582,626.6,607.4,454,424.9,543.3,597.7,609.4,635.8,667.1,771.4,879.1,920.2,955.7,972.5,992.3,1016.6,960.2,846.3,694.8,532.2,616.7,664.6,476.6,344.5,308.3,287.7,278.5,302.6,334.9,355.3,398.1,506,498.3,371.8,376.7,428.6,412.6,401.8,409.8,465.3,566.9,597.6,608.4,633,661.4,697.5,717.1,726.7,843.9,926,847.4,829.3,866.2,802.8,748.6,845.2,929.7,1001.1,821.8,637.8,733.1,774.3,761.4,596.4,455.5,506.7,529.6,531.5,609.3,603.2,407.7,422.4,525.2,609.5,602.9,499,621.6,707.3,630.6,717,838.8,722.4,682.7,706.3,807.6,874.2,889.5,694.7,590.8,768.5,710.4,619.5,667.8,745.9,823.8,832.6,825.8,796.6,673.9,704.5,816.1,827.8,799.4,732.7,571.8,540.4,560,469.5,477.4,526.9,565.2,550.1,496.3,391.8,405,422.7,415.4,576.6,840,1096.8,503.8,410.3,523.7,537.7,485.8,466.7,506.3,567.9,574.2,547.7,515.8,233.9,181.3,391.1,390.4,198.7,199.2,626.1,514.8
75.8,108.1,74.8,41.6,18.2,10.2,2.2,0,0,1.6,24.9,48.2,69.6,88.5,107.3,91.3,64.1,41.6,57,72.4,66.5,36,5.5,0,0,7.5,49.2,90.9,104.3,94,83.7,79.1,75.2,64.5,36.9,9.3,1.4,3.4,5.4,4.9,4.3,6.6,12.6,18.6,14.4,7.8,6.3,24.3,42.4,40.2,24.5,8.8,46.1,83.6,112,127,142.1,169.2,199.1,224,230.7,237.4,249.7,265.3,281.4,306.2,331.1,369.4,422.5,475.5,499.7,520.9,547,582.7,618.4,625.4,623.9,635.8,696.8,757.8,831.8,912.6,990.2,1040.8,1091.4,1262,1527.1,1790.9,1986.1,2181.3,2303.1,2345.2,2387.3,2403.4,2417.9,2310.2,2031.2,1752.2,1682.8,1638.8,1640.7,1720.4,1800,1812.7,1814.1,1847.4,1941.2,2034.9,2032.1,2010.6,2003.5,2024.7,2045.8,2026.2,1998.6,1981.6,1984.4,1987.2,1983.3,1978.3,1961.9,1926.8,1891.6,1853.1,1814.2,1791,1789.3,1787.6,1801.6,1816.3,1831.4,1846.9,1864.5,1946.5,2028.5,2126.2,2235.4,2344.8,2456,2567.2,2686.4,2809.3,2915.6,2969.6,3023.6,2965.6,2880.9,2795.1,2707.6,2620.1,2503.2,2384.8,2291.1,2218.8,2139.4,2007.4,1875.4,1815.5,1785.2,1752.5,1714.6,1676.6,1638.1,1599.6,1589.8,1607.3,1619.6,1594.8,1570,1559.8,1554.6,1560.6,1586.6,1612.5,1668.6,1725.1,1728.8,1700.3,1682.4,1695.3,1708.3,1717.7,1726.8,1756.5,1803,1855.6,1932.1,2008.5,2217.3,2447.4,2800.3,3263.8,3809.6,4692.8,5576,6564.1,7567.7,8376.3,9026.4,9527,9549.1,9571.1,8931.8,8242.5,7429.6,6543.2,5660.9,4786.9,3926.9,3420.1,2913.2,2556.9,2250.1,2035.8,1924.9,1835.6,1834.4,1833.2,1786.6,1736.6,1674.1,1605.3,1581.2,1621.8,1665,1722,1778.9,1883.2,1992.2,2064,2117.3,2250.1,2486.3,2708.7,2877.7,3046.6,3226.6,3406.8,3484,3529.4,3528.9,3491.2,3454.4,3419.3,3372.4,3257.6,3142.7,2903.1,2657.5,2519.4,2414.1,2332.9,2268.8,2212.3,2166.9,2137.4,2158.8,2195.3,2419.3,2643.3,3147.6,3677.4,4512.1,5440.7,6170,6776.5,7155.3,7285.7,7273.3,6989,6657,6151.8,5615.5,4781.7,3948,3671,3405.9,3293.5,3204,3169.9,3152.7,3016.7,2821.7,2717.9,2681.1,2602.3,2480.2,2352,2215.2,2059.4,1867,1707.2,1634.3,1550.1,1424.7,1318.6,1315.2,1310.6,1295.9,1279.5,1241,1203.1,1179.8,1156.7,1149.1,1141.5,1109.9,1077.9,1035.5,992.7,950.5,908.4,958.9,1014.3,941.4,861.9,847.7,836.2,824.6,813,887.4,959.2,898.8,841.8,841.7,847.7,912.3,961.6,919.6,880.3,852.7,816.4,754.4,715.4,725.5,730.7,728.4,725.1,720.7,712.1,700.1,652.5,585,588.2,616.1,576.3,524,471.4,427.4,497.2,554.8,561.4,569.5,580.9,589,593.2,560.6,503.5,602,753,767.4,768.4,792.2,813.3,825.5,822.2,796.3,787.8,791.7,702.9,586.6,576.5,551.2,426.8,352.4,363.5,314.9,223.4,259.8,329.4,440.6,509.8,456.6,424.3,413.3,398,381.2,356.2,351.1,407.7,395.2,315.4,375.4,480.2,669.6,763.4,666.3,657,701,841.3,920.6,750,741.8,880.3,833.6,767.4,786.7,814.7,851.8,760.5,662.1,681.9,654.4,579.9,357.8,199,376.9,440.6,418.9,400.1,382.6,367.8,424.2,509,574.7,579.9,520.4,592.5,681.5,769.7,664,506.1,558.6,693.4,896,596.2,460.8,571.7,743.3,824.6,680.7,651.4,638.4,559.2,495.5,464.3,562.1,538.7,472.9,574.8,628.2,656,715.5,592.1,391.8,435,362.3,295.1,592.2,434.5,159.2,202.8,288.1,364.7,389.4,472,547.3,596.3,427.6,449.9,631,623.8,602.1,522.5,294.9,103.8,124.4,388.6,103,251.7,502.6,321.7,555.6,650.2,560.2,755.8,527.7,284.6,264.8,67
5.8,5.6,98.2,190.8,210.6,117.8,25.1,38,90,136.9,114.8,92.6,83.5,93.1,102.7,81.6,50.8,26.4,55.4,84.4,82.5,44.7,6.8,0,0,0.4,2.7,4.9,6.5,7.6,8.6,34.3,62.2,76,54.2,32.4,31.4,41,50.4,53.2,55.9,56.9,55.5,54.1,63.6,75.7,80.6,57.6,34.7,35.8,53,70.3,112.3,154.4,170.2,146.8,123.4,123.2,128.5,144.2,197.1,250,289.2,320.5,350.4,355.1,359.8,376.3,405.8,435.2,466.1,497.1,543.7,621,698.3,745.2,783.1,814.7,822.4,830.1,862.2,906.9,958,1063.7,1169.4,1359.2,1615.1,1869.2,2018.1,2167,2271.8,2328.6,2385.4,2324.2,2256.2,2149.7,1989.4,1829,1805.1,1797.7,1790.6,1783.8,1777.1,1818.9,1868.9,1922.7,1983.9,2045,2008.8,1953.7,1924.1,1944.5,1965,1987.3,2009.9,2027.4,2035.3,2043.2,2008.9,1967.6,1948.2,1965,1981.8,1907.7,1823.2,1792.2,1834.2,1876.1,1842.5,1805.2,1794.9,1812.7,1832.7,1927,2021.2,2130.9,2252.1,2372.1,2483.4,2594.7,2702.9,2809.7,2897.8,2927.5,2957.3,2885.9,2790.4,2706,2640,2574.1,2466.7,2357.3,2239.6,2114.5,1991.6,1884.8,1777.9,1746.2,1745.1,1723.6,1655.7,1587.8,1583.3,1585.4,1592,1602.7,1610.6,1598.3,1586,1574.9,1564.3,1577.1,1631.2,1685.3,1665.5,1644.9,1619.7,1591.7,1586.9,1648.9,1710.8,1742,1769.8,1787.5,1796.8,1822.5,1912.8,2003,2206.6,2428.4,2800.3,3307.4,3884.7,4750.1,5615.4,6566.9,7531.2,8258.4,8793.1,9213,9265.6,9318.3,8759.9,8155.3,7347,6417.6,5513.5,4660.6,3825.2,3429.3,3033.5,2690.2,2364.3,2132,2004.6,1897.8,1875.1,1852.4,1820.4,1787.8,1727.8,1654,1624.7,1660.1,1693.1,1713.2,1733.2,1783.7,1837.3,1962.6,2123.5,2292.9,2473.5,2651.6,2820.5,2989.4,3124.9,3259.8,3335.9,3393.8,3415.6,3408.3,3381.5,3318.1,3254.3,3187.9,3121.5,2922.6,2717.4,2590.6,2487.6,2382,2274.7,2179,2100.4,2068.8,2187.3,2311,2498.6,2686.2,3211.4,3767.3,4512.9,5316.8,6066.1,6781.8,7200.2,7294.6,7247.2,6930,6569.7,6053.6,5507.9,4679.6,3851.3,3519.3,3198,3125.5,3090.4,3027.5,2955.9,2879.3,2800.1,2766.5,2766.2,2663.6,2455.4,2274.9,2133.8,2012.2,1928.7,1833.7,1707.9,1595.5,1532.8,1467.9,1391.1,1317.4,1269.4,1222.9,1197,1173.8,1230.2,1286.1,1216.7,1147.4,1113.8,1081,1067,1053.7,1023.5,992.4,1034.8,1081.1,1068.4,1052.8,998.8,943.1,987.2,1033.9,1047.8,1060.8,1039.6,1016.8,969.2,919.6,850.4,792.6,803.6,807.1,780,760.4,762.3,790.9,876.1,881.2,761.4,714.7,751,807.3,879.9,862.5,795.2,756.1,726.8,639.6,541.6,486,442,523.5,576.6,511.2,463.4,452.8,492.8,592.7,617.7,592.7,679.7,804.4,700.1,591.5,787.6,962.3,1066,1070.1,927.5,855,832.3,773.6,704.2,619.2,530.6,426.2,375.4,416.4,417.8,390.7,379.5,371.2,323.3,315,422.4,514.3,590.3,560,491.9,539.5,553.8,460,471.7,585.9,559.1,503,657.1,755.3,741.6,769.6,822.9,821.9,836.7,926.4,916.9,817.7,778.4,764.1,821.2,819.1,753.9,646.4,565.5,680.4,692.6,602.3,681.9,755.7,695.1,686.4,716.3,585.4,499,529,696,895.9,833.7,680,428.6,670.9,824.8,605,538.2,543,598.8,613.2,593.6,567.1,573.6,627,766.7,859.9,816.4,856,844.4,567.8,536,589.5,523.3,552.9,645,800.1,799,711,689.8,631.3,564.5,599.6,720.5,874.5,951.6,739.2,460.6,415.9,492.1,606.1,717.4,693.9,588.8,398,367.5,427.2,590.6,1017.9,789.7,366,292,534.4,693.1,662.3,455.1,205.6,41.4,208.1,187,342.5,714.2,1047.9,633.9,326.9,641.1,916.7
47.9,60.1,94.5,128.9,127.7,71.4,15.2,20.5,48.6,72.8,44.7,16.5,15.8,54,92.3,89.6,73.9,58.2,42.2,26.3,36.6,77.4,118.2,90.3,47.4,20.4,65.9,111.5,112.3,75.9,39.5,48.8,62.5,67.6,51.2,34.7,45.1,69.3,92.2,86,79.7,70.2,56.1,42.1,52.9,69.5,76.2,44.5,12.7,14.4,38.6,62.7,63.1,63.4,70.6,88.1,105.7,143.4,185.9,228.6,272.2,315.8,332,332.3,333.4,348.4,363.5,393.9,441.2,488.5,497.1,501.5,519.1,562.7,606.3,638.7,667.8,701.9,754.2,806.6,840,863.7,895.4,995,1094.6,1280.6,1534.6,1787.9,1999,2210.1,2335.2,2366.8,2398.5,2342.6,2281.6,2173.5,1999.6,1825.6,1761.3,1710.3,1691.9,1728.9,1765.9,1802.4,1838.8,1877,1918.6,1960.3,1983.7,2003.5,2013.4,2003.7,1994,1966.4,1935.4,1911.6,1901.3,1891.1,1903.3,1919.3,1909.9,1858.3,1806.8,1776.7,1749,1729.5,1721,1712.5,1739.5,1768.2,1790.9,1807.3,1825.3,1893.7,1962.1,2073.4,2216.4,2353,2446.1,2539.2,2652.9,2776.3,2882.7,2936.2,2989.7,2935,2854.5,2776.4,2702.4,2628.4,2487.8,2343.9,2232.6,2149.7,2067.9,1993.9,1920,1823.7,1718.4,1642.4,1632.8,1623.3,1623.8,1625.4,1597.4,1541.4,1495.1,1518,1540.9,1575.2,1613.7,1633,1618.6,1604.2,1616.2,1628.5,1642.6,1657.7,1668.9,1668.8,1668.7,1649.4,1627.9,1627,1642.9,1680.4,1802.3,1924.3,2126,2340.4,2722.1,3254.5,3847.4,4689,5530.6,6486.2,7458.6,8259,8919.8,9397.5,9289.2,9180.9,8624.3,8033.9,7265.9,6392.3,5532.6,4701.3,3884.4,3429.9,2975.3,2650.4,2368.1,2152.8,2012.5,1890.6,1844,1797.4,1741.8,1685.5,1624.3,1560.7,1548.5,1611.3,1672.6,1725.9,1779.3,1791.9,1800.4,1923,2102.2,2283.8,2468.7,2650.7,2822.1,2993.5,3093.9,3193,3338.7,3498.8,3551.7,3518.4,3466,3377.9,3276.6,3099.5,2922.4,2696.3,2467.9,2423.5,2435.1,2378.9,2274.5,2196.1,2155.3,2130.9,2159,2202.4,2434.5,2666.5,3217.4,3797.3,4572,5406.7,6101.2,6709.1,7109.5,7283.5,7295.2,6997.9,6627.2,5991.5,5348.8,4639.7,3930.5,3606.8,3291.4,3147.2,3028.7,2998.5,2995.3,2902,2764,2676.5,2626.1,2538.7,2413.1,2293.5,2182.7,2043.6,1849.5,1684,1594.2,1498,1378.6,1279.9,1290.6,1289.8,1196.6,1112.1,1145.6,1178.2,1182.7,1186.9,1117.4,1047.8,1046.7,1047,1071.4,1096.7,1050,999.9,942.8,885.4,849.3,814.3,851.2,891.2,931.7,972.2,935.8,899.2,875.9,854.4,864,876.4,915.2,947.4,939.4,925.4,887.1,851.7,824.7,806.2,805.7,791.8,756.8,748.5,770.4,782.1,785.4,690.5,541.3,520.1,543.8,600.7,663.7,696.2,720.7,658.9,607.3,598.3,569.9,500.9,504.1,592.9,605.1,566,708.4,912.1,769.8,613.2,798.2,923.9,851.1,848.8,950.2,886.4,705.1,609,538.2,545.9,533,399.3,308.9,292.6,327.9,400.4,355.9,284.7,325,329,227.2,214.5,293.7,316.5,319.2,357.2,412,517.8,598.1,653.7,661.7,659.2,713,711.3,599,623.1,730,757.5,752.1,655.1,647.1,719.6,820.7,897.5,816.3,771.6,765.7,696.6,613.6,531.7,482,464.4,367.4,332.5,585.2,647.4,567.3,587.6,588.1,533.1,644.5,797.2,643.5,546.5,510.1,677.4,771.9,623.8,632.7,701.9,728.5,752.2,773.6,661.5,508.8,303.3,505.5,699,722.9,789,830.9,744.2,595.4,458.5,521.5,677,844.8,749.7,774.3,843.5,695.8,638.6,624.6,525.3,539.7,611.4,651.7,533.5,400.2,470,499.2,524.4,571.1,404.4,385.4,643.2,617.4,703.4,886.9,951,776.2,505.9,292.6,238.7,222.8,224.5,401.9,384.9,381.4,749.7,823.4,775.3,649.9,549.5,456.6,455.1,600.3,613
47.5,0.2,3.1,6,12.2,23.4,34.6,59.3,89,117.9,136.5,155.1,157.4,136.3,115.2,102.4,92.3,80.2,52.4,24.6,8,4.3,0.7,30.9,68.5,100.5,106.8,113,91.8,47.8,3.8,31,65,83.1,61.2,39.3,33.1,35,36.8,37.5,38.3,35.7,28.4,21.1,25.6,32.9,35.7,20.9,6,2,5.4,8.8,20.3,31.8,49,74.7,100.4,127.1,154.2,181.9,212.4,242.9,284.2,331.9,376.2,363.1,349.9,366.1,414.3,462.5,561.6,666,727.6,704.8,682,692.7,713.2,744.9,817.5,890.2,938.1,973.1,1011.8,1081.8,1151.7,1320.8,1567.8,1813.3,1969.2,2125.1,2225.9,2266.7,2307.4,2247.1,2180.9,2099.7,1997.5,1895.4,1799.1,1703.5,1660,1704.5,1749,1761.6,1768.9,1778.2,1791.6,1804.9,1861.6,1926.7,1971.8,1977.5,1983.1,1935.5,1877.8,1852.1,1886.7,1921.3,1905.9,1882.1,1848,1796.7,1745.3,1762.1,1786.7,1793.8,1777.2,1760.5,1792,1825.8,1860.3,1895.5,1930.5,1957.3,1984.1,2041,2120.2,2211.9,2390.6,2569.2,2693.6,2792.6,2877.7,2918.9,2960.1,2919.5,2859.5,2787.9,2697.1,2606.2,2506.3,2405.9,2304.4,2201.7,2096.5,1972,1847.6,1746.7,1655.5,1595.9,1608,1620.2,1612.8,1603.5,1597,1593.1,1589.2,1584.2,1579.3,1600.2,1630.2,1656.3,1675.4,1694.6,1663.7,1632.2,1600.6,1568.9,1561.9,1625.8,1689.6,1703.2,1711.3,1741.8,1790.5,1843,1910.2,1977.4,2160.9,2363.1,2704.6,3171.6,3722.4,4616.9,5511.4,6472.4,7443.3,8253,8931.9,9437.4,9388.2,9338.9,8678.6,7972.1,7160.8,6287.3,5408.1,4517.4,3646.9,3285.7,2924.4,2623.3,2341.9,2130.4,1996.9,1883.3,1850.6,1817.8,1698.6,1572.6,1567,1622,1650,1638.7,1628.8,1626.8,1624.7,1703.7,1790.7,1939.4,2118.6,2276.2,2405.6,2564.8,2839.7,3114.6,3193.8,3269.5,3316.9,3355.6,3414.5,3489.7,3486.5,3336.3,3187.3,3044.6,2901.8,2710.2,2516.4,2418.1,2348.9,2284.3,2222.8,2146.1,2047.1,2001,2123.6,2247.6,2389.9,2532.2,3137.3,3784.6,4528.6,5302.5,5980.1,6598.5,6945.4,6996.4,6963.1,6769.1,6503.3,5977.7,5434.4,4721.9,4009.4,3657.3,3313.1,3213,3149.7,3034.4,2903.1,2873.8,2895,2828.6,2697.9,2555.4,2400.8,2256.4,2126.4,1993.6,1855.4,1728.5,1631.7,1535.6,1441.9,1365.5,1380.5,1385,1305.9,1230.1,1198.2,1167.9,1185.2,1202.4,1184.5,1166.6,1096.1,1024.5,999.3,975.9,964.6,954,986,1020.3,933.4,840.4,843.7,851.1,914.3,979,927.8,878.1,918,953,905.3,860.2,838.8,821.4,828,831.6,822.8,798.4,728.1,708.4,796.7,822.8,752,752.3,833.3,828.6,754.4,704.8,668.7,632.9,597.2,588,583.7,529.8,479.3,505,531.2,559.1,565.7,527.5,481.9,427.5,447.4,517,640.7,782.7,825.9,860.4,923.5,955.4,882.8,845.4,859.9,878.7,900.5,777.6,611.8,505.8,415.9,396.4,415.8,501.7,513,470.4,510.5,567.4,462,396.6,448.1,474.3,474.3,443,400.3,464.5,515,518.7,504.1,471.4,547,649.4,672.6,717.7,806.8,859.6,890.4,828.4,785.3,840.7,812.4,708.4,779.1,857.2,796.3,782.7,819.5,765,701.7,701.6,667.4,599,538.7,512,607.7,617.2,562.4,484,437.6,462.8,561.7,681.7,694.7,720.5,760,723.7,710.8,779.4,854.2,929.3,988.3,969.1,885.3,742.5,619.9,527.5,758.7,930.8,850.9,869,868.6,699.9,665.8,677.6,618.1,605.1,611.2,573.4,692.9,851.2,571.9,432.6,416.1,650.6,619.3,518.7,827.4,809.2,648.6,509.9,685.2,801.7,542.5,549,579.4,574,612.2,720.7,867.3,796.5,717.2,618.9,477.7,521.8,525.5,438.7,504.3,555.5,594.8,623.1,626.3,751.1,955.3,704.2,657.1,510.5,91.1,623.7
16.9,27.2,47.4,67.5,76.3,67.6,58.8,44.5,28,12.4,7.6,2.8,3.5,11.9,20.3,35,51.7,66.7,67.7,68.8,70.7,73.5,76.4,53,23.9,0.6,4,7.4,27.8,62.5,97.2,87.1,72.7,59.8,50.9,41.9,41.4,45.3,48.2,29.5,10.8,5.1,17.2,29.3,37.4,44.6,46.5,27.1,7.8,15.9,42.5,69,78,86.9,102,126.1,150.2,141.8,125.6,120.2,153.2,186.1,208,223.4,241.3,302.5,363.6,417.7,464,510.4,535.5,558.4,578.4,592.6,606.8,636.9,671.7,715.5,792.2,869,896.8,899.1,912.5,1019.2,1125.9,1319.8,1582.3,1842.5,1973.5,2104.5,2211.7,2293.2,2374.6,2290.9,2197.8,2073.5,1905.6,1737.8,1685.1,1646.3,1636.2,1674.7,1713.2,1713,1706.2,1732.7,1822.4,1912.2,1940.4,1956.7,1962.6,1947.9,1933.1,1957.2,1988.6,1999.6,1972,1944.3,1944.9,1950.1,1936.7,1892.4,1848.1,1833.5,1822.3,1805.8,1782.2,1758.5,1757.1,1756.8,1774.6,1811.1,1848.2,1905.4,1962.5,2044.2,2144,2252.6,2421.2,2589.8,2698.3,2778.8,2851.1,2897.6,2944.1,2877.9,2784.8,2707.7,2656.5,2605.4,2520.5,2434,2321.4,2185.9,2053.3,1942.8,1832.3,1745.5,1668.6,1612.5,1603.8,1595.2,1549.7,1500.5,1509.8,1575,1626.2,1578.9,1531.5,1535.7,1558.1,1570.3,1564.5,1558.7,1595.1,1632.1,1640.7,1632,1628.3,1638.7,1649.1,1649.7,1649.1,1662.8,1688.1,1720.5,1780.5,1840.6,2072.2,2331.3,2721.6,3230.1,3814.5,4710.5,5606.5,6515.8,7426.9,8187.6,8826.1,9302,9257.6,9213.2,8599.9,7943.7,7115.3,6184.6,5308.3,4542.8,3788.3,3310.2,2832.2,2519.9,2262.2,2039.6,1856.3,1715.4,1746.7,1778,1702.3,1618.3,1584.2,1575.3,1579,1601,1624.7,1657.3,1689.8,1779.6,1875.2,1980.5,2090.7,2216.3,2362,2522.9,2743.1,2963.3,3110.9,3257.2,3343.9,3412.4,3463.6,3500.9,3488.1,3381.4,3260,3054.6,2849.2,2659.3,2470.1,2322.3,2187.1,2158.7,2206.1,2186.9,2071.2,2007.4,2109,2216.3,2395.8,2575.3,3145.4,3751,4479.1,5244.9,5957.6,6637.5,7039.5,7138.5,7105.5,6821,6482.8,5950.1,5392.1,4592.4,3792.8,3570.1,3359.8,3184.8,3015.1,2950.2,2917.4,2829.1,2713.4,2627.9,2564.6,2441.3,2255.9,2124,2068.2,2003.3,1920.5,1813,1639.9,1482.9,1385.7,1296.6,1250.5,1209.9,1213.7,1211.5,1128.7,1048.8,1050.1,1051.2,1001.1,951.1,1048.2,1148.3,1060,964.8,1015.1,1072.5,972,863,894.7,933.5,947.3,960.2,911.5,861.2,908.6,954.4,912.4,872.6,869,862.3,826.8,797.8,808.8,825.6,866.7,875.2,787.7,733.5,750.2,763,769.7,768.1,757.1,792.9,866.4,863.4,818.2,751,676.3,594.7,511.9,539.4,567.2,530,508.4,552.3,589.3,611.9,582.3,490.7,533.3,665.6,733.1,778.8,837.8,899.5,979.8,1029.3,975.8,951.6,970.6,876.3,701.3,626.6,581.7,528.3,490.4,533.5,549.5,519,423.3,280.6,287.9,330,253.7,221.2,316.1,366.7,371.8,335.7,285,283.5,301.6,378.5,332.1,165.6,321.7,561.3,625.7,643,566,557.5,590.7,595.6,608.6,659.7,633,535.9,687,844.8,783.7,734.2,696.9,716.8,734.1,668.5,608.3,553.5,453.1,384.4,466.1,540.9,610.4,560.3,512.5,485.5,447.7,429.1,655.1,728.3,638.1,613.2,623.2,697.7,591.1,452.7,633.7,787.4,918.5,598.7,464.8,606,784.5,867.8,723.8,831.6,920.6,675.5,643.6,683,603.2,548.7,514.9,527.1,547.8,565.1,516.8,397.7,267.5,359,377.1,372.2,460.3,467.2,500.2,757.9,712.7,554.3,359.3,326.1,376.5,507.7,520.8,625.4,781.4,615.8,529.2,431.5,191.6,501.3,666.1,522.1,606.3,377.3,115.7,289.6,371.3,559.6,792.2,318.9,355.3,355.9,3.3,224.4
11,0,0,0,0,0,0,23,54.5,83.5,78.5,73.6,59.7,33.1,6.4,31.9,74,112.1,117.5,122.9,110.4,77,43.7,65.4,99.2,123.8,106.6,89.5,69.9,48.2,26.6,51.1,80,92.3,62.9,33.5,44.7,76.7,105.9,67.9,29.9,13.8,27.3,40.8,29.9,13.2,7.2,42.9,78.6,84.3,69.8,55.3,59.4,63.6,70.6,81.9,93.2,116,141.5,159.4,150.4,141.3,183.8,256.1,324.9,334.5,344.1,363.3,393,422.8,486.3,553.5,597.3,595.2,593.1,615.6,645.4,686.3,768.4,850.5,890.3,908.1,933.6,1024.6,1115.6,1279.8,1501.5,1722.2,1882.1,2041.9,2136.2,2159.4,2182.6,2219,2256.1,2180,1944.9,1709.9,1644.6,1599.8,1602.8,1686.4,1770.1,1787.6,1793.9,1809.7,1843.5,1877.3,1865.4,1844.6,1843.5,1881.1,1918.7,1879.4,1825.4,1814.6,1885.5,1956.3,1922.6,1871.6,1834.5,1820.4,1806.3,1805.1,1805.4,1793.1,1763.7,1734.4,1753.2,1774.3,1787.6,1792.7,1799.5,1859.1,1918.8,2007.9,2118.7,2228.3,2329.9,2431.4,2538.8,2649,2745.8,2800.6,2855.5,2850.5,2831.2,2777.9,2668.5,2559.1,2455.6,2352.4,2230.5,2092.4,1957.9,1850.6,1743.3,1695.2,1671.3,1637.5,1581.4,1525.2,1528.4,1537.7,1534.8,1520.3,1507.2,1504.5,1501.9,1515.6,1535.1,1547.9,1548.8,1549.8,1598.6,1647.9,1641.2,1600.1,1576.4,1602.7,1629,1615.7,1598,1634.6,1715.6,1787,1820.4,1853.8,2063.6,2301.6,2631.9,3045.4,3563.9,4513.7,5463.4,6458,7459.2,8244.4,8854.1,9310,9273.6,9237.3,8637.1,7994.2,7154.7,6198.2,5283.2,4452.5,3637.6,3221.8,2805.9,2500.9,2232.4,2038.5,1928.2,1829,1775.1,1721.1,1726.8,1737.1,1697,1631.6,1593,1593.6,1589.6,1561.3,1533,1615.7,1709.4,1844.3,1999.5,2172.9,2369.9,2561.1,2729.8,2898.6,3044.1,3189.3,3311.5,3426.7,3476.3,3473.2,3441.3,3355.7,3260,3106.5,2952.9,2743.7,2531.8,2408.9,2313.1,2269.9,2264,2222.2,2128.4,2061.4,2080.2,2117.2,2380.2,2643.2,3134.9,3647.4,4347.5,5105.3,5828.8,6531,6966.9,7112.5,7098.3,6780.1,6394.8,5766.8,5134.6,4462.4,3790.1,3536.1,3291.1,3181,3091.2,2973.4,2847,2797.7,2786.6,2686.3,2520.7,2377.5,2257.5,2144.4,2041.3,1936,1826.7,1707.7,1562.8,1431.8,1352.5,1289.4,1312.7,1326,1260.3,1200,1214.3,1226,1161.5,1097.1,1076.7,1056.2,1049.3,1042.5,1078.1,1115.3,1037.6,954.4,910.2,868,928.2,993.5,955,912.1,868.6,825.1,847.8,870.4,878.8,884.2,840.9,802.9,814.2,821.6,804.9,794.8,812.1,808.6,743.9,717.5,773.3,798.5,776,790.3,846.4,811.8,704,680.9,704.7,631.3,523.9,575.8,657,585.8,515.7,555.3,588.6,595.5,601.2,604.1,567.8,485.1,489.2,551.3,642.9,744.5,818.7,886.2,897.9,911.9,933.4,956.4,981.8,912.3,775.5,713.1,672.8,630.6,586.5,532.6,477.2,419.1,394.9,395.2,327.9,247.2,309,333.5,249.6,250.6,339.1,381.5,407.5,471.1,513.9,490.9,446.2,380.5,462.1,580.7,598.7,606.7,594.8,639.3,718.1,665.5,642.9,770.4,828.6,823.9,685.2,598.4,924,1068.3,1019.8,866.9,693,531.8,453.4,457.8,399,382.2,566.5,588.3,489,529.7,577.3,621.1,681.1,752.6,870.5,761.5,409.8,526,668.8,726.7,741.8,735.5,704.6,782.9,951.4,777.3,678.5,696.3,666.1,629.1,594.5,753.8,903.8,814.5,714.3,631,658.1,590.7,486.9,489.8,554.2,632.7,532,314.8,112,498.2,590.1,530.5,537.5,559.9,576.6,548.6,596.2,625.4,554.3,727.5,904.2,1021,819.7,674.7,616.8,789.9,649.3,451.8,528,438,432.9,559.1,199.5,296.9,586.8,680.1,629.8,662,807.8,961.8,548.3,319.4,726.7,554.2
10.2,4.4,76.6,148.8,166.4,99.7,33.1,48.4,94.1,135.6,120.1,104.5,93.4,88.6,83.8,97.5,117.2,135.5,141.8,148.2,139.4,112.9,86.4,83.8,86.5,83.9,57.6,31.3,29.1,47.2,65.2,63.3,59.5,63.5,87.4,111.2,115.6,110,103.7,80.1,56.4,35.8,19.4,3.1,2.4,5.4,15.8,55.3,94.9,101.7,86.7,71.6,78.1,84.6,92.9,103.6,114.4,120.8,126.1,133.4,147.9,162.3,185.2,212.9,239.4,242.9,246.4,276.5,335.8,395,422.2,445.9,465.7,477.5,489.3,517.9,551.5,587.3,631.7,676,714.8,750.6,787.2,830,872.9,1006.3,1210.9,1414.2,1540.2,1666.3,1745.7,1774.7,1803.6,1757.1,1706.2,1618.5,1479.2,1339.9,1335.9,1348.4,1361.5,1375.8,1390,1420.8,1454.3,1481.7,1497.8,1513.9,1549.9,1589.8,1599.8,1551,1502.2,1486.4,1477,1462.4,1438,1413.6,1442.1,1479.3,1503.5,1506.1,1508.7,1450.6,1385.4,1353,1365.3,1377.5,1426.5,1477.2,1478.5,1428.3,1381.7,1451.2,1520.7,1617.4,1734.2,1843.3,1900.4,1957.5,2030.8,2111.6,2191.1,2266.3,2341.5,2318.4,2271.9,2206.3,2109.4,2012.5,1903.4,1793.6,1729.2,1704.3,1669.7,1563.5,1457.2,1368.9,1287.9,1232.5,1235.4,1238.3,1226.1,1212.2,1207,1210,1216.1,1244,1271.9,1280.4,1282,1287.9,1301.5,1315.1,1306,1296.7,1334.4,1400.7,1444.5,1423.4,1402.4,1376.3,1349.7,1342.6,1351.5,1373.7,1448.4,1523.2,1721.8,1940.3,2268.6,2695.9,3174.3,3863.4,4552.4,5255.6,5960.8,6570.7,7103.3,7489.5,7407,7324.5,6706.8,6048.6,5370.6,4680.8,4013.2,3390.7,2781.2,2499.1,2217,1993.6,1789.5,1652.6,1590.8,1533.2,1492.6,1452,1392.6,1331.7,1339.2,1381.2,1375.3,1299.6,1246.8,1317.8,1388.9,1382.1,1367.5,1438,1550.7,1697.4,1888.7,2064.3,2179.5,2294.6,2393.3,2491.7,2550.7,2597.5,2648.9,2703.8,2716.4,2649.6,2577.3,2472.7,2368.2,2221.8,2073.4,1989.9,1926,1830.4,1712.2,1640.5,1635.9,1642.4,1684.3,1732.1,1852.5,1972.9,2501.6,3067.5,3673.1,4291,4815.2,5281.6,5530.9,5543.4,5501.4,5355.9,5115.3,4530.8,3949.9,3403.6,2857.2,2683.7,2518.3,2455.7,2408.5,2324.2,2228.6,2170.2,2130.4,2096.7,2067.6,2003.8,1904.1,1792.6,1664.2,1543.9,1439.2,1338.9,1250.2,1163.6,1084.8,1006.2,928.4,865.8,925.6,976.6,909,843.7,847.6,851.4,829.4,807.5,848.4,890.5,874.2,855.8,812,767,738.7,711.4,768.1,829.1,787.5,741.6,710.2,679.3,667.8,655.6,610.3,571,633.2,685.4,643.5,612.1,643.7,677.7,721.7,731.3,639.6,588.7,624.9,643.4,634.4,602.7,545.2,520.7,523,526.3,530.2,434.8,304.6,382.6,498.9,462.8,426.2,479.1,528.4,562.8,559.9,478.7,433.7,431.7,435,441.9,508.4,595.1,566.3,538.1,702.1,824.1,805.3,765.2,693.6,625.1,558.9,455.5,341,420.3,491.4,482.7,450.7,378.9,353.4,361.5,346.7,326.8,328.1,328.5,326.1,358.6,427,392.1,320.2,326.4,356.8,459.2,501.1,484.3,464.9,449.8,526.4,583.8,602.8,618.5,632.2,655.1,635.2,458.8,405.9,464.8,512.1,558.6,613.1,596.1,503,537.2,595.7,631.2,585,457.3,443.5,444.9,428.9,420.6,417.8,463.4,485,449,416.1,390.1,421.6,534.3,733.8,522.2,368.6,488.4,592.6,678,675.2,620.8,523.7,502.9,509.2,551.4,715.6,784.9,596.4,494.4,414.2,316.9,399.4,551.9,653.6,556,400.8,601.1,502.4,261.6,334.4,358.1,379.4,590.4,598,509.1,508.7,525.8,545.6,546.9,548.7,479.7,244.1,272.4,409.6,638.2,359.9,500.5,932.8,423.6,135.2,93,455.3,666.1,731,636.5,339.9,325.7,501.8,771.5,741.9,556.2,322.4,650.3,534.5,342.4,292.4,709.7
51.7,58.5,98.7,139,139.3,77.9,16.6,14.5,34.3,51.9,38.7,25.5,23.5,37.6,51.7,50.3,43.9,38,35.1,32.2,26.7,18,9.4,5.4,2.4,0.7,4.7,8.6,10.3,10.3,10.2,43.1,79.2,94.1,56.2,18.4,4.1,2,1.2,29.2,57.3,67.3,52.8,38.2,49,65.6,84.9,114.7,144.6,133.8,95.9,57.9,73.4,89.1,105.7,123.6,141.5,168.1,196.7,220.8,228.8,236.9,251.7,270.5,287,264,241.1,252.2,300.8,349.3,376.9,402.2,428.2,455.4,482.7,512.3,542.6,579.9,643.4,707,761.7,811.8,865.1,944.8,1024.6,1166.1,1356,1545.7,1721.7,1897.7,2013.1,2062.4,2111.8,2052.5,1987.1,1879.7,1713.6,1547.5,1473.7,1411.1,1394.9,1457.3,1519.6,1549.8,1574.6,1619.5,1702.9,1786.3,1804.6,1810.3,1806.7,1784.7,1762.6,1764.7,1771.4,1768.6,1747.9,1727.2,1696,1663.1,1621.6,1565.9,1510.2,1545.2,1590.7,1631.4,1665.8,1700.1,1621.7,1537.9,1510.4,1541.4,1573.2,1631.4,1689.6,1795,1935,2068.9,2161.3,2253.6,2362.8,2479.8,2575.4,2604,2632.5,2639.2,2640.8,2611.6,2532.2,2452.7,2327.5,2200.1,2086.5,1984.8,1881.4,1764.6,1647.7,1580,1532.5,1486.3,1443.2,1400,1438.1,1484.5,1471.4,1401.7,1343.8,1368.8,1393.9,1415.7,1436.3,1447.4,1441.9,1436.3,1416.3,1396.1,1365.8,1329.3,1326.8,1421.9,1517,1474.8,1417.4,1432.9,1508.2,1586.6,1677.3,1768,1906.1,2051.8,2327.7,2720.8,3203.2,4052,4900.8,5835,6781.9,7624.3,8381.9,8948.5,8903.3,8858.1,8289.6,7681.5,6882.7,5970.7,5115.8,4377.1,3649.6,3201,2752.3,2407.8,2097.7,1881.8,1771.5,1673.9,1628.6,1583.3,1485.2,1383.1,1390.3,1452.5,1473.6,1434.8,1403.9,1416.1,1428.4,1482.1,1539.9,1657,1803.5,1961,2132.6,2297.7,2437.7,2577.8,2645,2710.9,2850.4,3012.5,3093.6,3109.4,3076.7,2953.2,2836.6,2759.3,2682,2526.8,2367.9,2251.5,2148,2066.8,2001.5,1934,1863.3,1817.8,1852.8,1899,2083.1,2267.3,2669.7,3092,3727.7,4429,5103.9,5762.4,6198.6,6392.4,6478.7,6360.3,6131.5,5503.3,4870.7,4195.2,3519.7,3282.2,3054.2,2870.4,2693.3,2583.5,2494.3,2440.7,2404.9,2354.3,2292.9,2237.1,2187.2,2079.8,1891,1733.2,1635.5,1530.3,1405.3,1290.9,1215.5,1149.5,1132.5,1113,1073,1030.5,955.6,884.9,938.5,991.5,891.7,791.8,889.1,990.2,895.8,794.1,796.2,803.4,741.1,675.1,701.9,733.5,744.9,755.5,751,746,795.5,843.4,808,774.9,780.8,785.9,782.2,770.5,711.4,668.4,691.5,706.8,699.5,669.9,592.9,546.9,549.2,565.2,596.7,624.4,649.2,635.2,599.7,569.2,540.4,528.7,520.1,492.3,464.5,446.8,432.1,429.9,419.6,392,389.7,417.6,431.5,436,523.4,638.9,666.9,683.6,674.1,670.8,688.4,738,834.9,818.8,722.5,647.1,577.9,512.1,450.7,411.4,388.2,392.9,331.3,222,237.7,282.7,240.9,230.3,310.5,365.5,394.7,397.9,391.8,293.1,239.4,328.6,393.8,435.6,444.1,443.8,457.7,463.6,453.6,492.8,562,732.4,843.1,706.8,671.7,728.3,716.8,676.1,550.4,537.5,644.6,618.1,570.8,572.4,547.5,496.1,488.6,461.3,330.5,252.1,212.8,351.9,429.3,351.2,314.3,314.7,515.8,565.8,454.2,579.7,678.6,636.4,476.4,314.4,493.2,519.1,418.6,404.6,384.1,351.8,526.1,637,529.8,528.3,536.6,465.4,431.8,398.3,280.7,281.5,349.5,428.9,453.9,464.4,618.4,586.4,448.7,370.7,318.7,292.8,326.7,427.2,525.4,507.7,545.3,517.5,294.2,353.7,506.9,724.1,551.4,510.7,599.9,666,521.1,327.3,286.8,486.5,760.2,1048.1,688.7,450.1,381.2,619.1,487.4,457,579.9,556.1,296.5,79.6,76.3,242.8
28.5,2,35.6,69.1,92.6,100.7,108.8,80.6,38.8,3.4,53.3,103.2,130.4,125.2,120,112.4,104,95.2,83.1,71,53.2,28.8,4.4,0,0,5.8,37.9,70,99,125.3,151.6,123.1,89.3,62.7,53.7,44.7,57.9,82.5,105.7,95.2,84.8,72,55.9,39.8,27.4,15.7,13.1,45.8,78.5,87.9,81.6,75.4,96.7,118.1,133.7,140.5,147.4,164.2,183.3,194,174.5,155,157.1,171.7,187,214.5,241.9,273.6,310,346.3,394.6,444.1,479.1,485.3,491.5,525.2,567,609.2,653.1,697,726.3,748,775,846.2,917.5,1036.8,1193.9,1352.2,1572.7,1793.3,1921.2,1948.3,1975.4,1951.4,1924.5,1841.2,1679,1516.8,1481.2,1461,1446.4,1441,1435.5,1460.9,1491.5,1515.8,1528,1540.2,1548.9,1556.9,1570.2,1593.9,1617.5,1639.2,1660.6,1682.9,1707.2,1731.5,1694.6,1647.7,1608.7,1583,1557.2,1533.8,1510.6,1502.3,1514.2,1526,1517.5,1508,1500.4,1494.8,1490.6,1530.1,1569.6,1644.3,1745,1853.1,2012.1,2171.1,2285.3,2378.6,2473.2,2572.1,2671,2619.2,2531.5,2449.9,2378.1,2306.3,2213.4,2119.5,2005.2,1873.1,1748.6,1679.9,1611.2,1527.2,1437,1371.5,1362.1,1352.7,1324.7,1294.9,1311.4,1372.1,1423.7,1410.7,1397.8,1375.6,1350.1,1332,1326.8,1321.6,1307,1292.3,1310.2,1348,1384.3,1416.1,1447.9,1439,1425.8,1459.6,1532,1592.2,1604.6,1616.9,1727.2,1853.1,2144.5,2584.9,3095.6,3894.9,4694.2,5574,6465.7,7240.8,7921.2,8453.5,8511.5,8569.4,8156.4,7707.8,6977.4,6079.4,5190.8,4321.1,3469.4,3066.4,2663.5,2354.7,2076.9,1859.4,1709.3,1583.2,1555,1526.7,1438.7,1346.2,1344.7,1389.2,1403.1,1372.4,1350.3,1374.5,1398.6,1428,1457.8,1540.2,1648.7,1817.1,2063.4,2295,2469.6,2644.2,2641.5,2635.5,2756.6,2916.8,3001.7,3025.8,2999.7,2879.3,2756.6,2620.1,2483.6,2411.3,2342.1,2273.3,2204.7,2087.5,1935.9,1846.7,1847.9,1847.8,1843.7,1851.8,2012.7,2173.6,2632.6,3118.8,3674.6,4251.9,4884.7,5551.9,6015.4,6256.8,6351.8,6168.4,5924.7,5463.4,4976.1,4240.3,3504.6,3194.4,2893.3,2787.2,2710.4,2645.2,2583.5,2494,2390.7,2335.8,2316.4,2203.7,1994.5,1835.2,1746.7,1652.1,1545.7,1433.5,1305.5,1185.9,1097.5,1022,1015,1005.6,978.2,951.6,938.4,926.5,952.4,978,939.5,901.1,894.8,889.1,887.9,886.9,897.6,908.9,856.5,800.7,753.2,706.1,734.9,766.9,780.7,794,820.2,843.7,743.3,653,732.1,799.1,752.8,711.7,701.7,693,689.9,680.3,651.7,630.8,626.3,615.4,594.6,586.1,591.6,591.7,587.7,583.8,580,514.9,428.4,473.8,543.6,501.7,457.4,451.3,444.3,433.7,433.5,455.6,453.9,424,482.5,600.1,641.6,657.5,660.4,662,664.7,676,715.9,777.4,870.8,863,783.2,665.1,535.6,500.4,455,339.9,276.1,300,280.6,230,269.1,329.1,323.2,344.3,444.4,501.3,513.7,427,304.7,373.3,418.6,384.2,360.4,347,436.6,554.8,653,708.2,677.7,716.7,797.8,784.5,757.8,713.9,675.4,641.9,672.4,702,661.9,607.4,537.6,471.6,447,643.1,666.5,517.3,594.9,661,534.5,536,633,580.6,556.1,610.7,566.9,487.9,479.4,452.2,404.9,606.3,722.4,550.8,541.3,601,665.5,682.8,661,565.5,475.9,397,548.1,643.1,527.4,509,502.6,434.2,450.6,501.2,532.7,580.3,612.1,478.2,376.3,326.6,522.5,605.8,602.8,483.5,546.9,731.1,1012.4,807.9,474.2,466.9,565.2,649.9,622.8,551.2,543.6,643.2,632.1,728.5,876.5,574.3,545.1,619.3,611.2,365.9,428.4,914.4,601.8,482.7,463.8,418.6,297.3,413.8,768.8,883.4,773.4,660,675.4,771.7
55.5,0,0,0,3.1,10.8,18.6,43.5,74.7,103.8,102.6,101.4,87.8,56.3,24.8,16.6,15.7,17.3,38.4,59.6,67.3,59.5,51.6,69.7,93.6,110.3,94.4,78.5,58,33.7,9.4,56,109.3,134.8,90.2,45.6,26.9,21.5,16.6,23.1,29.6,28,15.2,2.4,7.2,16.2,22.6,19.6,16.5,25.3,42.2,59,48.8,38.6,50.8,96.6,142.4,136.4,118.1,105.1,111.1,117.1,127.6,140.6,155,194.3,233.7,277.2,325.2,373.3,378,378.2,390,424.7,459.4,477.6,491.1,514.2,573.3,632.5,662.9,678.5,697.3,743.5,789.6,919.3,1114.6,1309.8,1495.2,1680.6,1779.1,1783.2,1787.3,1801.6,1816.4,1736.6,1524,1311.5,1279.8,1270.1,1263.5,1262.1,1260.7,1311.6,1371.3,1422.6,1458.1,1493.6,1502,1505.1,1511.6,1524.9,1538.1,1508.9,1471.5,1466.1,1521,1575.9,1555.3,1522.1,1490.9,1462.7,1434.5,1407.1,1379.7,1369.5,1382.8,1396,1402.2,1408,1413.4,1418.2,1423,1429.5,1435.9,1485.5,1566.9,1659.2,1826.1,1993,2103.8,2188.3,2259,2286.4,2313.7,2295.4,2266.1,2225.3,2165.5,2105.8,2015.4,1923.5,1839.7,1763.1,1683.9,1585.3,1486.8,1421.7,1370.4,1329.8,1313.6,1297.3,1245.7,1190.4,1187.9,1235.5,1271.5,1225,1178.5,1163.3,1159,1179,1241.7,1304.4,1331.9,1358.9,1372.3,1377.4,1380.4,1377.5,1374.6,1366.9,1358.6,1347.9,1335.1,1340.6,1417.3,1494.1,1633.1,1782,2017.6,2331.4,2721.9,3428.1,4134.3,5005.6,5901.3,6685.6,7379.3,7911.4,7926.1,7940.8,7484,6991.5,6282.1,5443.7,4641.9,3914.5,3201.8,2860.3,2518.7,2229.1,1956.6,1742.6,1594,1470.6,1449.9,1429.2,1340.6,1246.7,1240.6,1278.8,1289.7,1261.2,1240.9,1265.2,1289.5,1338.8,1390.5,1462.2,1543.7,1694.4,1935.4,2150.6,2265.9,2381.2,2499.4,2617.7,2699.8,2770.9,2829.4,2877.8,2882.3,2804.5,2712.7,2541.2,2369.6,2270.9,2175.6,2080.7,1985.8,1913.8,1857.9,1807.4,1764.8,1718,1657.5,1612.3,1755.8,1899.2,2344.3,2816.7,3430.5,4087.8,4726.9,5354.6,5798.2,6041.1,6141.5,5971,5733.8,5255.3,4753.3,4027.1,3300.8,3002.7,2713.8,2630,2576.9,2545.7,2521.2,2443.4,2339.2,2231.5,2121.3,2003.8,1878.9,1777,1707.9,1632.6,1545.6,1448.8,1325.9,1210.9,1125.4,1053.5,1053.8,1046.3,976.6,909.1,870.4,835.9,924,1011.5,945.6,879.8,867.6,856.5,882.3,909.6,838.2,762,777.9,798.6,753.3,704.5,705.2,707.9,726.7,745.9,799.1,848.9,749.4,656.4,672.9,689.6,708.8,719.8,681.1,646.2,627.5,601.3,553.2,538.6,595.8,642.1,671.2,638.9,537.1,515.2,557.8,567.3,558.4,549,539.4,542.7,548.4,552.4,547.5,425.7,353,485.9,549.1,465.5,394.9,339.6,357.6,424.5,476.6,523.5,593.7,665.1,716.8,769.3,824.7,850.8,833.9,777.2,692.2,597.3,499.4,476.4,453.8,418.4,381.8,343.2,338.7,359,419.7,486.3,378.3,293.1,274.2,278.6,307,376.4,460.4,406.6,368.3,384.1,405,431,417.5,396.5,448.7,486.3,494.5,527.3,575.2,579.6,597.6,678.5,680.5,611,590.4,572.6,519.4,558,694.3,702.6,661.1,505.8,392.7,321.7,455.6,576.7,514.1,415.6,290.3,345.6,388.2,380.1,347.3,319.4,451.4,422.3,221.1,275.4,324.1,277.7,390.5,541.3,483.7,538.7,686.8,713,664.3,514.2,641.4,723.4,602.1,608,579.5,296,309.3,423.8,381.9,429.2,501.7,411.5,447.5,566.2,724.8,575.5,295.5,416.8,422.5,388.5,484,430.9,289.7,74.4,210.7,398,439,338.8,329.8,494.2,407.9,337,299.7,362.9,429.2,392.4,52.9,430.9,524.8,104.8,301.7,293.9,193.3,161.1,58.7,299.3,838.7,715.1,313.2,0,6.9,469.7
13.2,0.7,11.6,22.5,24.9,13.9,3,8.5,20.1,32.4,53.3,74.3,78.2,57.9,37.6,41.9,54.1,63.4,49.2,35,50.1,99.1,148,158,159.4,153.8,116.6,79.3,68.1,78.6,89.1,100.6,112.2,110.7,76.4,42.1,35.5,43.1,49.6,32.4,15.2,4.5,2.4,0.4,0,0,2.6,15.3,28,27.8,18.9,10.1,48.8,87.7,112.4,116,119.5,126.6,134.5,141.5,145.1,148.7,173.1,209.5,244.9,263,281.1,289.8,288.2,286.6,327.1,372,414.4,452,489.6,498.5,499.1,507.8,546.5,585.3,621.9,657.4,694.3,743,791.7,922.7,1118.6,1313.3,1445.8,1578.2,1667.1,1708.5,1750,1761.8,1772,1717.4,1572,1426.6,1344.1,1269.2,1226,1236.4,1246.8,1302.7,1366.3,1420.9,1458.3,1495.8,1487.1,1469.6,1466.9,1493.6,1520.3,1512.5,1498.1,1487.8,1485.2,1482.5,1434.9,1379.8,1350.2,1362.9,1375.7,1362.2,1345.8,1335.9,1335,1334,1348.4,1363.5,1369.8,1366.9,1364.8,1389.9,1414.9,1480.4,1575.7,1673.8,1790.3,1906.9,1988.8,2054.5,2119.7,2183.2,2246.8,2245.1,2227.8,2190.7,2121,2051.2,1937.2,1821,1722.2,1638.7,1555.9,1477.9,1399.9,1330.6,1264.8,1217.1,1210.4,1203.7,1202.2,1201.3,1202.4,1205.3,1207.5,1204.2,1200.9,1222.3,1252.5,1272.1,1272.8,1273.6,1233.9,1193.7,1186.3,1198.8,1208.5,1210.3,1212.1,1273,1340.4,1361.5,1344.5,1336.5,1363.6,1390.7,1508,1639.8,1877.5,2210.6,2592,3172,3751.9,4570.3,5424,6187.1,6876.6,7410,7443.7,7477.3,7110.8,6714,6120.5,5409.9,4688.2,3943.9,3212.7,2807.5,2402.4,2132.2,1906.3,1732.1,1615.7,1513.5,1468.4,1423.4,1381.3,1339.5,1348.5,1383,1357.9,1246.2,1158.8,1203.5,1248.1,1289.2,1330,1414,1519.3,1665,1863.5,2042.5,2146.3,2250.1,2304.2,2357.5,2472.6,2606.8,2676,2692.7,2696.8,2677.4,2651,2584.7,2518.4,2300.4,2075.2,1946.4,1847,1830.7,1873.5,1863.5,1777,1713.9,1725.4,1746,1878.1,2010.2,2327.5,2661.7,3233.6,3878.6,4466.4,5018.9,5440.7,5720,5891.8,5858.8,5724.8,5225.4,4708.3,4022.7,3337.1,3076.7,2825.5,2723.3,2643.4,2581.8,2525.7,2415.9,2279.5,2205.9,2178.3,2107.4,1991.9,1896.3,1829.1,1741.6,1614.8,1478.5,1316.8,1170.7,1082.3,1005.6,990.4,975.6,963.7,949.7,908.9,870.2,894.5,918.5,884.1,849.7,873,897.4,860.6,821.6,826.1,832.7,778.5,721.1,710,701.2,722.5,744.9,707.8,669,770.5,866.6,704.7,553.9,587.9,619.7,630.9,640,636.8,626.8,588.9,556.5,540.3,531.4,538.2,557.9,597.5,613.9,604,618.2,651.8,644.1,613.7,545.5,464.1,492.3,540.7,490.8,444,498,526,445,410.2,472.8,451.3,330.2,384.5,556.1,542.7,466.8,555.4,660.1,738.7,806.6,838.6,858.5,860.5,807.3,714.7,604.2,488.4,413.6,341.2,272.4,245.8,291,352.3,425.1,375.1,296.8,316.8,337.1,358.6,348.8,306.8,340.7,401.7,311.6,285.8,465.1,484.9,349.7,348,395.9,645.8,749.8,562.7,526.9,583,642,656.9,512.6,500.1,607,582.5,565.8,724.4,732,578.8,491.2,460.4,658.6,691.2,558.4,505.8,469.3,441.1,499,621.2,537.5,456.1,406.7,446.6,516.1,498.8,486.7,480.1,473.9,503,617.8,656.4,650.7,557.9,628,832.8,628.8,504.8,505.7,608.8,675.8,624.3,636.1,629.3,490.6,609.7,803,791.3,792.2,781.6,646.7,615.6,622.4,433.9,273.9,178.8,407.7,498.1,490.3,373.8,422.2,517.1,510.5,621.6,694.4,588.5,430.1,304.2,240.5,468,653.9,771.3,698.1,440.3,247.3,500.4,438,411.8,498.8,349,281.6,293.5,405.4,459.1,651.8,935.8,665,439.9,295.2,269.1,976.2
46.7,37.8,66.6,95.3,108.1,96.1,84.1,108.2,145.6,179,158.3,137.6,130.8,143.9,156.9,130,90.3,52.7,31.9,11.2,0.8,2.6,4.4,42.6,89,126.5,123.9,121.4,102.6,70.1,37.7,49.3,65.2,71.1,52,32.8,28.3,31.2,33.8,29.5,25.2,32.5,55.5,78.5,57.4,26.2,3.9,16.6,29.3,47.6,69.6,91.6,95.7,99.8,106.7,118,129.2,132.4,133.8,135,135.3,135.7,155.5,186.5,217.4,245.2,273,298.3,320.9,343.5,376.5,410.6,442.7,470.8,498.9,501,495.5,495.9,517.9,540,581,631.8,679.7,703.5,727.3,841.7,1027.5,1212.8,1377.3,1541.8,1630.2,1635.8,1641.4,1615.9,1588.7,1518.9,1389.5,1260.1,1247.4,1248.8,1252.2,1258.9,1265.6,1302.7,1344.9,1370.6,1364.6,1358.7,1359.2,1360.9,1369.3,1390.8,1412.3,1423.9,1433.6,1439.6,1438.5,1437.4,1407.1,1372,1348.6,1344.8,1341,1349.9,1360.2,1352.9,1321.6,1290.2,1284.6,1280.2,1284.3,1297.2,1310.1,1321.1,1332.2,1372.5,1434.2,1506.9,1655,1803,1915.6,2011.6,2095.4,2140.9,2186.3,2139,2069.7,2008.6,1960.9,1913.2,1836.6,1758.5,1702.3,1665.1,1615,1469.2,1323.3,1270.8,1256.3,1225.9,1159.4,1092.8,1138.9,1196.6,1229.9,1240.1,1243.6,1199.3,1155.1,1148.7,1155.6,1163.7,1173.8,1184,1200,1216.2,1196.8,1155.8,1144.2,1217.3,1290.4,1280.6,1261.7,1271.7,1305.3,1345.7,1412.2,1478.8,1579,1684.7,1865.8,2114.9,2440.9,3082.5,3724.1,4453,5194.7,5863.6,6473.3,6948.2,6991.2,7034.2,6705.9,6349.6,5771.7,5062,4357.8,3664.6,2984.6,2633.5,2282.5,2064.4,1890.1,1733,1595.3,1469,1389.5,1310,1282.7,1259.4,1242.9,1229.9,1235.1,1267,1291.4,1275.2,1259.1,1309.1,1365.7,1438.6,1519.4,1628.8,1775.3,1936.1,2152.2,2368.2,2409.5,2447.6,2521.2,2605.6,2656.9,2681.5,2676.1,2614.4,2551.4,2481.2,2410.9,2321.4,2230.9,2067.2,1881.3,1776.5,1729.4,1706.7,1719.5,1722.4,1694.2,1675.3,1773.2,1871.2,2197.9,2545.4,3171,3882.2,4522.9,5120.1,5574.9,5874.4,6012.4,5842.9,5605,5119.5,4620.4,3991.5,3362.7,3096.6,2838.4,2706.6,2593.9,2515.6,2447.8,2370.6,2288.6,2205.5,2121.7,2067.6,2044,1969.7,1823.2,1687.4,1572.3,1450.3,1310.3,1194.9,1170,1136.6,1057.7,985.9,971,953.6,902.3,854.2,897.2,939.7,860.9,782.1,821.9,863.9,848.1,830.2,794.7,758.4,783.3,811.5,804.8,796.2,812.8,830.4,800,768.5,754,740.9,782.2,819,781.8,745.1,712.1,679.5,649.5,628.5,644.1,645.5,604.9,576.5,574.4,573.7,575.3,581.9,594.1,622,662.5,654.8,620.4,588.8,558,543.4,531.8,432.4,346.7,497.4,624.6,653.4,645,558,477.7,405.3,426.8,511.1,587.3,660.7,658.4,648.8,653.9,671.3,729.8,816.8,945.6,945.2,852.9,708.4,548.4,512.2,472.6,392,332.3,308.1,339.3,410.5,349.9,258,240.8,219.6,186.9,227.2,342.7,417.1,476.8,430.5,387.5,359.2,359.3,386.9,451.3,526.9,613.6,658.3,619.2,637.8,691.7,715.6,703.3,570.2,500.6,488.5,566.3,644,629.5,663.5,749,636.9,521.9,630.8,662,615.8,639.2,691.2,805.6,807.8,726.2,631.8,525.4,395.3,399.7,458.2,481.5,483.5,462.7,474.1,520.8,643.5,699.1,713.1,631.7,570.8,526.8,517.8,511.1,506.5,481.9,507.9,655,737.4,751.5,599.1,660.8,789.9,778.1,691.6,590.5,669.8,574.5,411.5,546,567.7,532.8,584,579.4,578,754.5,688.4,538.7,483.9,600.2,606.5,225.7,333,421.3,350.6,600.5,690.5,625.1,557.5,412.5,342.5,598.2,525.1,471.4,519.4,525.7,396.3,331.4,692.9,685.4,642.4,646.6,837,815.3,770.6,814.9,981.6
33.9,8.9,57,105,114.4,64,13.6,23,54.5,84.2,90.6,97,86.7,52.6,18.6,28.3,52.1,71.2,52.7,34.2,30.1,42.9,55.7,40,18,9.1,59.9,110.6,116.8,85.9,55,54.8,57.6,56.5,46,35.5,36.5,43.6,50.4,52.1,53.8,45.9,24.9,3.9,22.1,49.4,65.5,38.2,11,17,45.5,74,93.1,112.1,107.1,66.1,25.2,52.9,97,138.9,172.7,206.6,226.3,237.7,247.9,234.8,221.7,236.9,282.8,328.8,360.9,391.6,415.2,425.2,435.2,436,434.1,438.8,467.9,497,531.5,568.8,607.8,660.6,713.4,830.5,998.1,1165.6,1326.3,1487,1585.6,1616.9,1648.2,1647.5,1645,1575.2,1411,1246.9,1189.4,1144.8,1123.8,1142.6,1161.4,1209.4,1262.3,1304,1324.4,1344.7,1370.4,1397.1,1416.1,1419.8,1423.6,1413.9,1401.5,1386.1,1364.8,1343.5,1362.4,1388,1397.4,1380.1,1362.8,1352.9,1343.8,1339.6,1342,1344.3,1317.8,1289.9,1289.1,1316.5,1343.5,1360.2,1376.8,1432.6,1517.1,1599.7,1669.9,1740,1834.8,1941.2,2032.2,2075,2117.8,2119.4,2111.1,2063.4,1950.8,1838.2,1758.1,1679.5,1623.7,1587.7,1546.6,1467.7,1388.9,1326.6,1271.2,1225.1,1200.1,1175.2,1150,1124.8,1101.9,1081.4,1065.5,1082.5,1099.6,1145,1200.4,1219.3,1173.6,1127.9,1133.1,1139,1144.4,1149.5,1171.4,1241.6,1311.7,1298.7,1276.6,1269.9,1275.9,1298.1,1384.1,1470.1,1575.2,1683.4,1895.5,2201.2,2558.4,3127.4,3696.4,4428,5183.6,5823.8,6370.2,6812.2,6920.3,7028.4,6581.7,6093,5529.9,4922.4,4277.4,3556.4,2851.9,2561.5,2271.1,2038.2,1824.1,1660.8,1554.1,1467,1459.6,1452.2,1422.8,1391.7,1351.4,1306.5,1262.8,1221,1195.4,1257.8,1320.1,1314.7,1302.6,1377.5,1495.6,1637.7,1811,1973.6,2094.2,2214.9,2346.4,2478.2,2572.2,2654.7,2661.4,2606.9,2562.6,2537.1,2506.6,2447.5,2388.3,2239.2,2085.9,1989.2,1909.8,1830.2,1750.4,1677.2,1613.6,1575.3,1617.6,1666.6,1800.1,1933.6,2251.9,2587.1,3284,4092.4,4748.8,5311.5,5711,5932.8,6020,5851.2,5617.7,5150.4,4656.9,3913.7,3170.4,2995.1,2831.9,2707,2587.9,2516.4,2459.4,2388.2,2309.9,2268.3,2253.7,2169.6,2013.9,1897.2,1835.9,1765.4,1676.8,1557.4,1355.8,1174.2,1066.6,980.1,1005.6,1030.2,1047.1,1059.1,1003.6,950.6,968.2,985.5,924.1,862.6,834.5,807,791.1,775.7,766.2,757,675.3,589.8,689.3,798.3,728,650.3,724.3,802.3,810.4,815.9,718.3,629.1,680.8,725.8,707.8,684.3,627.5,591.3,640.4,670.2,643.4,614.7,582.1,575.9,611,646,680.8,691.9,683.7,656,617.6,565.4,508.3,463.6,421.2,430.8,444.3,475.1,496.3,477.6,440.4,364.6,323,322,379.3,475.6,511.3,526.6,575.1,632.5,769.9,864.4,816.1,809.4,864,817,697.8,646.9,616.3,584.1,549,499.1,421.1,295,214,165.4,231.5,323.8,304.5,283.4,257,292.7,392.2,378.9,325.3,358,396.6,450.3,448.3,392.1,433.9,498.7,463,468.2,554.8,607.4,639.3,663.8,661.4,564.9,567,658.4,572.9,520.7,826.4,929.6,817.6,663.1,529.5,560.8,488.8,313.7,411.1,532.7,565.8,481.8,310.2,309.9,331.7,378,460.7,534,350.7,356.9,565.4,426.1,394,734.8,740.4,629.1,691.5,628.5,462.1,645.2,724,645.5,575.2,508.2,445.8,510.7,633.5,820.6,628.2,341.8,435.4,595.9,770.6,791.8,866.8,912,483.1,421.5,579.4,693.6,615,474.4,571.7,563,511.4,478.6,420.7,444.9,681,349.4,209.6,507.4,543.8,480.4,353.2,376,313.5,229.1,200.7,500.7,627.4,456.4,383.4,574.2,880.3,1085.5,454.2,291.9,731.8,826.6,666.1,432.6,237.5,688.8
0,0.7,12.4,24,43.5,74.9,106.2,115.8,117.1,115.5,72.9,30.3,19.2,52.8,86.5,77.6,55,33.5,20.3,7.1,0,0,0,0,0,0,0,0,0,0,0,16.3,34.1,46.2,44.3,42.3,39.3,35.9,32.4,26,19.7,13.4,7.3,1.2,0.4,0.9,3.2,12.5,21.7,24.8,23.7,22.6,54.6,86.7,113.2,131.1,149,140.5,125.7,121.2,153.3,185.4,197.4,197.9,198.3,196.9,195.5,206.9,232.5,258.1,304.2,352.4,394.5,424.4,454.3,477.4,498.6,516.6,523.1,529.7,561,605.1,648.5,685.1,721.6,829.6,993.8,1158.2,1337,1515.8,1613.1,1621.9,1630.6,1581.5,1529.1,1442.3,1307.3,1172.3,1143.7,1127.9,1126.6,1149.8,1173,1208.7,1246.6,1292.2,1352.5,1412.7,1415.9,1408,1382.1,1320.5,1258.8,1287.5,1333.6,1363.6,1363.3,1362.9,1332.3,1296.6,1281.1,1299.1,1317.1,1306.5,1292.6,1287.1,1293,1298.9,1258,1214.8,1187.1,1175.6,1166.5,1232.3,1298,1375.2,1460.7,1544,1612.6,1681.2,1784.9,1905,1997.7,2005.2,2012.6,1985.6,1950.3,1910,1861.1,1812.3,1744.1,1675.1,1601.4,1523.6,1446,1370,1293.9,1227.9,1166.2,1122,1118,1114,1135.5,1159.6,1169.2,1164.8,1157.9,1134.1,1110.2,1093.6,1079.6,1081.4,1111.1,1140.9,1143.3,1145.5,1173.9,1218.4,1255.6,1272.1,1288.6,1249.7,1204.8,1219.7,1283.6,1334.7,1335.1,1335.6,1467.4,1620.2,1867.8,2200.9,2568.5,3078.1,3587.7,4368.7,5189.9,5869.2,6433.1,6865,6874,6883,6487.4,6061.3,5478.9,4803.7,4145.7,3522.6,2910.4,2573.5,2236.6,1998.8,1793.7,1615.4,1467.1,1342.6,1315,1287.4,1313.1,1342.8,1307.2,1238.6,1188.9,1166.6,1148.4,1151.7,1155,1188,1223.9,1297.1,1388.9,1526.2,1722.9,1901.5,2010.1,2118.7,2222.3,2325.8,2411.1,2490.8,2548.6,2588.8,2577.9,2471.5,2373.9,2327,2280.1,2186.3,2090.3,2006.4,1926.3,1846,1765.6,1704,1669.9,1633,1587.2,1557.4,1726.5,1895.5,2259.5,2641.2,3219.5,3858.3,4509.3,5168,5632.3,5884.8,5964.4,5715.2,5430.5,5017.9,4585.6,3964.4,3343.2,3045.3,2754.4,2630,2530.6,2421.6,2309.7,2251.5,2219.9,2209,2213.2,2147.1,2008.5,1866.4,1719.4,1583.8,1470.3,1362.4,1269.1,1178.7,1099.1,1034.4,1048,1054.8,1007.3,958,882.8,811.4,849.9,887.9,840.2,792.4,786.4,781.1,782.7,784.5,785.2,785.8,720.7,652,617.7,585.1,652.9,724.9,746.4,766.5,740.9,716.5,756.1,791.8,761.7,735.9,751.6,755.7,689.3,632.8,616.7,614.8,654.8,663.1,603.8,560.8,543.2,541.8,558.5,574.1,588.6,567.4,526.6,462.2,389.7,342.3,299.5,366.8,436.8,472.9,488.1,416.4,364.4,353.9,358.7,381.7,420.6,470.1,561.3,666.5,632.2,593.3,712.2,802.8,798.8,767,694.1,670.4,681.7,631.8,563.8,467.3,364.5,234.7,200.6,330.6,346.5,280.1,273.2,282,316.4,336.1,313,311.7,332.9,312.3,276.8,344.7,362.9,222.6,172.5,210,214.9,219.6,392.9,494.8,453.9,497.1,591.3,625.1,649.3,658.6,630.9,569.8,520.9,498.2,603,704.3,801.9,695.6,555.4,479.4,383.6,268.1,290.3,328.1,333.9,344.3,358.2,412.2,476.3,556.7,438.5,258.9,320.6,374.8,420.7,461,500.5,540.1,673.2,800.9,607.5,514.7,505,574.2,543.9,371.5,492.5,631.6,703,658.3,549.8,345.6,381.3,475.8,327.1,343.6,435.4,419.6,467,547,579.9,474.8,297.2,204.6,219.5,303.7,436.1,549.3,588.8,397,474.6,568.4,496.6,439.9,321.2,105.9,266.7,491.5,734.7,744,735.5,646.2,348,386.1,464.1,500,172.5,29.4,87.3,438.6,589.6,645.4,663.7,931.9,459.7,91.5,335,510.9
133.1,182.1,115.2,48.4,10,15.5,21.1,73.3,142.9,203.9,148.3,92.8,71.6,99.5,127.5,128.2,120.2,112.2,103.6,95,94.6,103.7,112.9,126.4,141,152.5,150.3,148,124.7,83.7,42.8,47.3,56.1,64.2,70.6,76.9,94.5,117.7,140,138.6,137.1,118,74.9,31.8,49.7,81.7,104.9,93.6,82.2,67.3,50,32.7,46.9,61.3,84.3,120.5,156.6,179.8,199.9,214.8,211,207.2,220.7,244,266.1,265.8,265.5,276.4,299.5,322.7,343.4,363.8,385.5,409.8,434,458.3,482.5,508.8,542.7,576.6,594.6,604.3,619.9,684.5,749.2,868.9,1032.1,1195.5,1372.9,1550.2,1651.3,1669.5,1687.7,1647.6,1604.1,1551.2,1485.2,1419.2,1321.1,1219.2,1166.5,1197.3,1228,1254,1279.3,1303.5,1325.8,1348,1338.7,1323.2,1322,1349.2,1376.3,1387.4,1395.4,1401,1401.9,1402.9,1380.3,1353.9,1324.8,1291.2,1257.6,1253.9,1253.6,1268.3,1303.2,1338.2,1310.6,1280,1267.4,1273.7,1281.5,1336.8,1392.2,1461.8,1541.9,1615.9,1647.7,1679.6,1769,1885.1,1994.1,2080.7,2167.4,2138.3,2081.7,2024.9,1967.8,1910.7,1872.8,1835.9,1754.9,1635.6,1520.4,1435.1,1349.8,1302.4,1270.5,1241.9,1220.7,1199.6,1188.2,1177.7,1185.9,1212,1232.6,1213.4,1194.2,1196,1205.1,1204.5,1186.8,1169.1,1177.8,1186.7,1171.4,1141.3,1128.6,1166.1,1203.6,1232.9,1261.2,1302.2,1353.5,1401.7,1437.6,1473.4,1568.5,1673.1,1871.7,2155.1,2511.2,3166.3,3821.4,4480.6,5140.4,5761.4,6350.9,6815,6877.8,6940.7,6605.6,6240.4,5628.7,4870.3,4141.1,3471.2,2815.3,2512.1,2208.9,1991.9,1803.4,1639.9,1504.4,1390.1,1361.4,1332.8,1273.3,1211.4,1196.4,1205,1211.5,1215.1,1223.4,1257.4,1291.4,1326,1360.7,1433.6,1525.5,1607.8,1677.6,1776.8,1990.1,2203.4,2286.3,2366.7,2472.7,2586.6,2662.7,2708.4,2693.4,2564.7,2437.5,2319.3,2201,2097.7,1995,1889.1,1782.1,1721.4,1693.4,1638.9,1545.9,1489.9,1552.1,1623.4,1807.4,1991.5,2350.3,2725,3278.3,3886.6,4540.1,5221.4,5635.4,5758,5829.9,5805.4,5680.1,5190.1,4675,3919.1,3163.3,2930,2708.1,2565.8,2435.5,2397.5,2387.7,2350.1,2298.6,2226,2137.9,2035.6,1918.8,1815.2,1730.4,1664,1633.3,1552.4,1338.2,1155,1085.8,1026,1015.2,1004.7,996.5,984.2,917.4,853.4,874.6,895.6,859.4,823.3,851.8,881.6,837.9,791.6,789.3,789.1,720,647.2,634.5,624.9,626.1,627.8,689.4,752.6,780.5,806.4,746.5,690.7,703.7,712.9,687,668.9,698,714.7,680,650.7,637.6,651.1,721.3,744.2,693.4,648.7,610.9,601.6,615.3,614.7,606.1,572.8,530.9,468.8,402.9,380.5,368.6,468.8,541.4,499.4,471.4,473,479.8,492.9,512.7,537,538.9,533.1,525.8,527.6,667.1,768.7,743.4,769.6,871.8,874.3,805.9,679.6,536.1,525.9,503.3,392.2,314.1,292.5,346.4,454.9,442.3,401.2,440,471.6,482,497.9,519.4,388.6,203.6,336.8,426.9,370.4,379.7,453.1,538.9,624.2,635.9,620.7,551.7,566,630.8,610.6,586.3,575.3,608.8,682.7,780.6,851.2,752.4,720.8,760.6,638.6,506.1,513.5,493.2,445.4,483.6,523,510,480.1,437.4,454.3,538.8,760.3,725.4,595.3,613.9,639.7,673.2,676.1,659.3,604.2,675.1,772.5,678.8,575.8,465.1,587.9,620.8,520.1,644.7,733.7,659.8,559.2,485.6,533.2,540.1,551.4,676.3,712.3,710.1,781.8,786.7,721.4,433.9,404.2,516.8,518.5,576,674,820.8,796.3,704.1,648.4,643.8,609.6,467,416.2,361.9,277.9,400.5,456.6,463.7,637.6,524.6,340,349.1,392.7,510.1,698.5,453.3,548.8,712.1,499.3,657.5,664.2,472.3,498.6,635.5,728.4,678.4,360.4
164.1,197.8,157.7,117.7,82.4,54.4,26.4,13.7,6.6,1.1,16.3,31.6,58.9,103.3,147.6,121.6,73.1,31,40.4,49.8,45.3,24.5,3.7,0,0,5.8,37.9,70,97.2,120.2,143.2,121.8,96.3,74.9,64.2,53.6,54.8,62.2,68.6,50.3,31.9,29.9,49.8,69.8,68,61.1,57.4,66.4,75.3,76.1,71.3,66.6,78.8,91.1,93.1,79.4,65.8,95.3,135,163.7,152.8,141.9,189,269.4,342.5,287.9,233.4,238.1,307.8,377.4,367.7,349.6,354.9,406.3,457.7,490.4,517.7,547.7,587.7,627.6,640.4,639.2,643.3,692.6,741.9,865.3,1046.9,1227.3,1339.6,1451.9,1523.8,1552,1580.2,1594.7,1608.4,1563.1,1435.2,1307.2,1258,1218.3,1200.6,1220,1239.4,1261.7,1284.5,1308,1332.7,1357.4,1372.1,1384.8,1401.3,1425.3,1449.4,1416.7,1373.1,1351,1369.2,1387.5,1366.3,1338.6,1319.1,1313.1,1307,1302.7,1298.5,1299.2,1306.6,1313.9,1335.9,1358.5,1343,1287.8,1236.8,1319.2,1401.5,1450.3,1474.4,1506.6,1594,1681.4,1785.7,1898,1989.6,2016.7,2043.8,2064,2082.6,2072.3,2014.5,1956.7,1868.6,1779.1,1691.9,1606.6,1520.9,1431.8,1342.7,1289.9,1251.8,1227.2,1233.2,1239.1,1189.4,1133.9,1110.8,1118.7,1124.5,1115.4,1106.4,1103.3,1102.3,1120.6,1172.8,1225.1,1251.7,1278,1280.4,1268.1,1258.5,1256.5,1254.5,1268.9,1285.1,1272.5,1236.4,1217.7,1267.9,1318,1504.9,1713.9,1956.1,2228.2,2567.2,3180.9,3794.6,4450.8,5113.3,5761.7,6398.5,6885.8,6894.2,6902.7,6507.9,6082.7,5521.1,4878.4,4234.5,3588.2,2954.7,2640.6,2326.6,2050.8,1787.7,1582.7,1442.8,1332.5,1342.6,1352.7,1329.2,1303.1,1279.4,1257,1242.7,1240.4,1239.9,1249,1258.1,1291.1,1326.4,1413.4,1526.1,1644.6,1770.6,1897.9,2029.7,2161.6,2312.5,2463.7,2571.3,2665.5,2704.7,2699.5,2648.4,2511.4,2384.4,2314.6,2244.7,2154.5,2063.3,1930.6,1785.2,1722.1,1717.4,1718.6,1728.3,1725.7,1684,1659.3,1846.8,2034.3,2362.5,2703.5,3346.3,4082.2,4727.4,5316.8,5676.5,5785.8,5821.6,5717.2,5523.4,5006.1,4483.8,3914.5,3345.1,3074.7,2810.7,2666.3,2539.9,2498.1,2482.1,2446,2400,2330.1,2242.7,2134.9,2005.9,1872.5,1732.9,1626.2,1583.3,1511.9,1364.8,1226.5,1121,1029.2,1010.4,991.6,973.7,954.6,919,884.5,880.2,875.9,858.7,841.6,862.9,885,857.2,827.5,769.8,710.7,716.7,726.2,728.9,731.3,747.3,763.9,768.8,773.4,799.5,822.9,728.8,642.4,686.2,724.5,710.9,704.5,741,759.8,705.3,663,656.3,651.6,650.9,639.9,612.8,585,556.4,592.7,681.4,690.9,656.7,617.6,576.9,555.6,537.9,491,448.4,481.3,498.2,448.2,434.9,498.9,487.6,387.1,406.2,505.2,539.2,551.3,665.4,784.1,807.9,838.2,890.2,920.7,919.4,824.7,663.6,559.9,473.3,512.9,527.1,386.8,299.2,301.7,304.7,308.1,310,313.7,404.2,432.5,279.4,252.1,354.2,375.4,367.7,467.5,533.8,491.9,490.8,529.2,487.8,428.5,464.9,500.6,535.1,534.5,512.5,666.6,755,550.3,506.3,607.8,753.1,874.9,827.5,790,763.1,593.3,462.2,714.1,763.8,611.5,619,618.3,480.9,484.8,594.3,511.6,500.8,669.3,664.9,597,634,605.2,506,627.1,709.8,628.1,590,569,538.1,545.3,584,705.8,732.8,624.1,590,607.3,712.3,793.4,814.4,653.8,791.9,964.3,638,560,610.6,602.9,614.5,659.3,866.3,729.2,452.3,667.3,651.1,540.1,607.1,661.9,618.4,244.4,538.7,864,756.5,780.7,730,532.5,550,686.8,886,746.3,547.3,454.7,752.8,663.6,481.2,287.3,538.3,669.2,610.3,182.3,469.5,808.5,1032.6,853.8,586.7,592.4,1093.2,730.8
40.2,61.2,46.7,32.1,32.4,55.4,78.4,61.4,29.6,2.4,37.7,72.9,95.7,100.6,105.5,98.1,86.7,76.7,78.3,79.8,74,59.5,45,34,23.7,14.4,9.8,5.1,22.8,59.2,95.6,107.3,116.7,118.1,99.6,81.2,64.9,49.8,34.8,22.4,9.9,5.7,12.7,19.7,48.3,81.8,100.1,58.4,16.7,5.2,13.9,22.6,49.4,76.2,98.9,115.4,131.9,128.5,120.5,123.3,165.1,207,237.1,260.4,281.3,260.2,239.1,244.7,279.5,314.3,348.7,383,412.6,433,453.4,475.3,497.6,524.7,569.1,613.5,630.9,634.1,643.3,702.3,761.3,877,1037.2,1197.6,1372.3,1547,1625.3,1598.9,1572.6,1541.3,1509.8,1446.2,1337.5,1228.8,1157.9,1091.5,1067.7,1116.1,1164.5,1201.8,1237.2,1269,1293.7,1318.3,1343.3,1368.3,1389.8,1404.6,1419.4,1411.9,1400,1403,1433.9,1464.8,1403.4,1326.8,1286.3,1306.2,1326,1308.9,1287.6,1287.4,1315.8,1344.3,1326.9,1307.3,1280.1,1245,1212.9,1273.1,1333.2,1413.8,1509.5,1602,1673.8,1745.6,1816.7,1887.6,1950.6,1989.1,2027.6,2050.4,2069.4,2052.6,1977.1,1901.5,1814.7,1727.3,1655.4,1597.2,1533.3,1428.5,1323.7,1277.3,1254.6,1224.9,1178.9,1133,1150.4,1174.5,1192.8,1205.9,1215.7,1202.4,1189.1,1164.1,1135.1,1128.4,1161.1,1193.8,1187.1,1179.9,1157.9,1126.8,1121.1,1188.7,1256.3,1258.8,1254.1,1245.8,1234.5,1237.6,1296.9,1356.3,1482,1618.4,1830.4,2110.5,2457.2,3077.2,3697.2,4440.9,5202.9,5810.1,6291.6,6677.4,6756.8,6836.3,6528.9,6192.3,5604.1,4866.2,4162.9,3529.8,2908.6,2587.6,2266.6,2015.1,1786.5,1632.7,1562.4,1496,1444.8,1393.6,1344.4,1295.3,1225.3,1144.9,1102.5,1115.3,1137.1,1207.1,1277.2,1297.4,1312.6,1399.1,1520.9,1639.9,1755.4,1883.1,2058.3,2233.5,2318.3,2401.5,2518.7,2646.3,2666.8,2600.9,2562.9,2577.4,2570.7,2443.1,2315.4,2235.8,2158.5,1982.5,1776.4,1700.8,1717.8,1708.9,1662.7,1636.5,1673.9,1717.4,1835.7,1953.9,2265.5,2594.7,3215.6,3926.4,4616.3,5293.3,5707.9,5836.5,5901.1,5844,5693.7,5205.9,4694,3951.5,3209,3016.5,2835.7,2707.9,2588.1,2484.9,2386.8,2336.3,2309.5,2238.8,2136,2033.3,1930.5,1829.4,1730.5,1631.6,1532.6,1428.8,1311.9,1210.6,1166.5,1120.4,1063.7,1001.2,893,796.7,860.7,923.9,961,997.7,931,864.3,889.3,916.1,901.1,884.5,857.3,829.5,766.5,701.6,709.3,720.8,710.7,699.7,790.8,884.5,866.1,846,771.9,703.6,730.7,750.6,703.4,667.4,698.3,722.3,717.6,698.6,638,597.3,599,606.8,624.1,608.2,554.6,544.6,569.7,538.7,476.6,493,536.8,514,478.8,490.3,506.4,553.3,580.9,527.4,500.9,531.4,544,535.3,536.2,543.5,567.1,596.3,646.4,700.1,775.2,827.1,802.2,805.3,849.8,773.3,610.9,590.4,612,594.5,567.8,502,445.9,406.5,336.1,243.4,296.9,384.5,361.6,323.5,241,247.2,344.8,406.5,455.5,461.2,464.8,463.6,427.4,357,403.1,480.1,508.7,552.5,626.9,625.2,577.4,619.6,661.9,674.8,683.3,687.8,720.1,748.9,730.2,718.3,713.6,699.3,691.8,733.5,683.8,542.9,485.5,436.9,366.4,340.7,348.2,383.3,417.1,444.3,439.9,436.5,581.8,699.8,788.5,840.1,823.9,654.2,575.5,557.4,697.8,682.1,537.4,644.1,601.4,341.1,614.7,831.4,723.8,686,667.8,642.6,633,616.2,527,637.7,802.4,586.6,600.2,722,597.5,556.3,551.3,444.7,350.4,300.4,443.2,602.3,744.8,801.5,604.2,413.6,431,355.2,343.8,453.6,544.6,493.1,347.2,504.2,773.1,866,292.7,198.9,310.8,554.1,266.7,443.4,717.2,492.7,749.6,793.5,551,500.9,386.2,286.1,250.6,342.9
16.1,2.6,44.9,87.1,97,56.8,16.5,15.1,28,39,24,8.9,0,0,0,20,46.4,73.6,108.2,142.7,138,87.7,37.3,49.4,75.2,95.6,91.8,87.9,75.2,55.2,35.1,54.8,78.3,85.1,50.5,15.9,12,23.9,34.8,21.3,7.8,5.3,17.9,30.5,41.9,53.1,62.3,63.9,65.6,55.9,38.6,21.4,65.4,109.5,132.2,122.7,113.3,107.3,102.1,101.9,120,138,160.4,185.3,210.5,239.8,269.2,285.1,286.3,287.4,332.1,381.3,417.3,427.3,437.3,447.6,457.9,473.6,509.2,544.8,552.4,545.4,545.5,605.3,665.1,781.4,942.2,1103.2,1278.1,1452.9,1542,1537.9,1533.7,1570.2,1609.1,1551.5,1359,1166.4,1144.7,1143.8,1162.8,1215.7,1268.7,1273.8,1270.9,1283,1323.8,1364.6,1370.5,1369.8,1378.9,1407.7,1436.5,1411.5,1376.1,1362.1,1388.4,1414.7,1380.9,1337.2,1304.9,1291.5,1278.2,1260.9,1243.1,1236.2,1244.3,1252.4,1266.5,1280.9,1274.8,1247.5,1222.9,1283.9,1344.9,1408.3,1473.3,1541.8,1634.7,1727.6,1843.1,1969.1,2074.5,2115.8,2157.1,2160.6,2155.1,2118.6,2031.3,1944.1,1858.5,1773.1,1686.9,1600,1509.1,1389.4,1269.7,1231.2,1225.9,1220.8,1215.9,1211,1163.6,1111.7,1090.3,1097.8,1107.5,1131.4,1155.4,1145.3,1123.2,1110.2,1113.1,1116,1129.7,1143.6,1151.4,1155.4,1173.9,1234,1294.1,1285.4,1269.1,1263.1,1265.5,1278.3,1331.5,1384.7,1516.7,1661.4,1889.6,2193.2,2538.5,3055.2,3571.9,4327.5,5118.5,5758.1,6274.7,6690.5,6783.8,6877.1,6511.8,6111.9,5556.1,4907.6,4245.4,3555.5,2878,2513.5,2149,1926.7,1751.2,1602.2,1482.8,1369.8,1282.9,1196,1203.4,1218.1,1238.6,1262,1267.4,1246.6,1223.9,1191.1,1158.3,1225.1,1301.8,1390.6,1485.5,1603.8,1752.6,1897.3,2026,2154.7,2246.9,2338.5,2410.5,2476.4,2532.5,2580.6,2581.5,2494,2407,2323,2239,2153.7,2068.4,1930.8,1777.2,1711.6,1708.4,1670.6,1582.9,1516,1515.8,1530.1,1724.5,1918.9,2146.1,2376.2,2955.6,3642.6,4318.6,4987.7,5431.4,5629.2,5732.6,5656,5504.6,5082.7,4637.9,3974.6,3311.4,3029.2,2755.2,2509.9,2268.8,2290.1,2391.7,2316.4,2153.5,2096.7,2117.9,2016.6,1788.7,1639,1600.4,1554.3,1493.8,1419.4,1307.8,1204.6,1132.4,1062.4,1003.6,950.8,946.2,938.7,891.9,845.4,809.5,773.8,813.4,852.9,857.1,860.6,834.2,806.7,774.4,741.9,789,840.3,751.5,655.5,666.5,682,739.1,797.2,756.2,715.1,688.9,661.9,622.8,587.7,589.1,596.8,642.7,686.9,724.7,744.7,712.7,675.2,626.3,587.9,565.8,543.4,520.4,553.6,632,625.5,571.9,552.4,544.8,513.1,476.9,447.5,420.4,418.3,396.4,291.4,251.6,348.9,404.2,409.8,465,553.3,576.2,576.9,539.6,512.3,693.5,829.7,816,827.8,877.5,832.9,721.4,650.4,591.6,494.4,399.4,322.8,275.7,279.4,306.9,351.6,327.1,287.9,359,400.9,357.4,323.5,299.5,316.6,348.4,456.2,512.6,406,347.5,335.7,387.5,450.5,382.4,392.5,558.5,602.8,573.1,534.5,501.9,493.1,481.6,467.4,434.6,407.7,431.9,514.8,660.3,700.6,730.9,834.4,790.8,600.4,509.6,456.6,480.5,507.5,536.8,365,304.5,508.9,539.4,496.6,462.8,441.8,434.5,447.1,440,378.2,470.9,615.3,664.3,624.5,511.5,401.8,368.9,443.9,547.5,623,624.7,638.4,632.8,547.9,458.8,392.7,452,577.5,696.5,524.4,545,651.7,516.9,448.6,430.4,474.1,487.2,497.5,581.1,610.8,630.9,704.4,600.6,521.9,636,442.5,342.9,465.3,557,668.1,760.4,510.9,418.1,400.4,381.5,347.3,311.5,284.7,463.5,455.5,323.2,133.2,304.6,509.5,648.8,457.9,241.3,176.7,385.1,823.9
0,1.1,18.6,36.1,39.8,22.3,4.7,11,26.1,39,24,8.9,15,51.3,87.6,85,70,54.3,32.9,11.5,0,0,0,0,0,4.6,29.9,55.3,81,106.9,132.8,124.1,112.1,104.3,107.2,110,104.6,94.9,84.9,64.9,44.9,36.9,45.3,53.6,44.8,32.1,22.9,27.7,32.5,34,33.3,32.7,54.1,75.6,85.4,77.5,69.7,92.9,123.6,149.1,156,162.8,154.8,138.2,125.1,172.7,220.3,251.5,264.7,278,300.9,324.8,336.7,324.8,312.9,343,385.6,425.7,456.8,488,509.4,525.7,545.4,594.2,643,713,799.8,888.4,1087.3,1286.1,1391.3,1394.7,1398.1,1399.6,1401,1332.6,1166.4,1000.1,942.5,898.1,907.9,1009.2,1110.5,1111.8,1096.3,1094.4,1118.5,1142.6,1171.3,1200.9,1200.8,1141.9,1083.1,1115.9,1166.4,1197.6,1192.6,1187.6,1149.7,1106.4,1077.4,1072.1,1066.8,1052,1036.1,1042,1077.6,1113.1,1080.2,1044,1028.1,1033.1,1038.9,1067.5,1096.1,1177.4,1297.4,1411.9,1488.2,1564.4,1604.4,1627.6,1665.3,1748.6,1832,1797.2,1734.4,1684.7,1656.5,1628.3,1527.6,1423.3,1348.1,1298.2,1245.2,1167.8,1090.5,1045.6,1013.9,988.2,976,963.8,955.8,948.3,965.3,1005.7,1040.8,1038.5,1036.2,1069.3,1114.8,1116.2,1039.6,963,990.1,1018.4,1017.9,999.9,995.4,1029.8,1064.1,1044.8,1019.6,1026.5,1059.9,1085,1077.2,1069.4,1219.6,1395.3,1627,1909.3,2229.2,2704,3178.7,3736.9,4307.6,4821.4,5289,5662.3,5733.4,5804.5,5420.8,5002.8,4524.3,4009.8,3489.4,2957,2433.8,2141.9,1850,1662.5,1509.3,1371.9,1252.2,1164.9,1209.1,1253.3,1139.6,1013.6,1001.8,1047.4,1062.5,1033.3,1007,997.1,987.1,1016.1,1048.9,1149.7,1284.1,1411.4,1529.3,1652.5,1795.9,1939.3,1996.2,2051.7,2145.5,2251.1,2279.4,2245.2,2185.5,2078,1979.4,1932.7,1885.9,1744.5,1598.6,1486.2,1383.8,1354.6,1377.4,1389.4,1385.9,1386.6,1400.6,1420.1,1508.9,1597.8,1942.1,2309.7,2788.8,3302.3,3818.8,4337.2,4647.4,4730.6,4728.4,4563.5,4358.8,4009.6,3639,3062.7,2486.3,2328.5,2179.7,2083.5,1995.2,1951.9,1922.3,1909.9,1906.1,1859.5,1781.5,1686.4,1573.5,1467.9,1372.7,1285.2,1212.8,1146.9,1098.2,1048.2,993.4,933.5,847,770.9,778.1,786.8,816.4,844.3,821.2,798,778.6,759.2,737.6,716,704.8,694,684,674.1,629.4,582.9,537.6,492.3,542.8,597.4,637.5,677.2,656.4,634.9,599.4,565.5,559.8,549.5,495,446.6,434.4,438.4,509.4,549.4,498.3,465.3,470.6,492.9,541.3,572.3,583.4,556.5,498.9,495.7,522.4,477.9,408.4,395.2,392.3,414.5,437.1,448.8,439.6,342.6,286,314.3,311.6,272.2,265.9,281.7,400.1,553.1,528.5,490.3,535.5,574.4,592.7,659.3,797.2,762.5,605.1,515.9,446.9,485.6,493.1,319.5,226.1,269.9,299.7,319.6,260,183.7,238.8,269.7,229.8,269.7,391.6,408,386.6,338.5,308.4,334.9,366,401.5,377.8,343.1,419.1,485.6,533,552.9,556.1,564.3,576.8,602.7,618.8,626.1,630.6,608.7,450,396.8,455.8,538.7,609.1,582.9,478.1,294.9,319.3,398.9,549.8,574.4,504.6,424.6,430.9,623,683.7,662.3,374.9,236.1,256.3,285.3,298.8,271.9,325.4,422,584,642.3,614.8,569.6,525,481.9,542.7,610,653.6,694.3,683.9,500.1,512.6,579.4,478.2,461.1,485,472.8,434.5,398.6,501.5,512.7,475,489.4,380.7,280.4,580.8,669.2,616.1,402.3,233.2,208.7,489.2,508.3,439.6,310.2,347.7,486.8,699.1,800.1,803,747.3,658.8,610.6,533.4,412.4,371.8,241.1,139.2,278,365.1,416.1,501.2,1116.2,871.2,583,726.4,533.2
62.1,19.6,45.7,71.7,76.5,48.6,20.7,40,76.8,111.7,119.7,127.8,131.2,127.9,124.7,115.1,103.5,91.8,79.2,66.5,60.5,62.3,64,58.1,50.5,43.6,39.8,35.9,38.5,46.5,54.5,36,15,5.9,26.5,47.1,70,94,115.1,70.4,25.7,8.5,28.7,48.8,71.2,94.1,107.9,85.8,63.6,52,47.3,42.7,71.8,101,121.8,130.1,138.4,132.7,123.6,113.1,97.7,82.3,114.3,173.7,228.8,208.9,189,209.2,273.3,337.5,356.5,370.9,385.3,400,414.7,441.7,472.3,495.5,491.5,487.5,512.7,553.1,591.4,612.1,632.8,718.6,855.7,992.6,1120.2,1247.8,1339.7,1392.8,1445.9,1476.2,1505.2,1448.6,1272.1,1095.7,1048.5,1016.9,1010.4,1046.3,1082.2,1119.3,1156.7,1188.2,1208.5,1228.7,1249.1,1269.4,1283.4,1284.8,1286.2,1268.3,1246.8,1237.2,1250.1,1263,1240.8,1212.7,1175.3,1122.4,1069.5,1084.4,1107,1126.1,1140.4,1154.7,1180.4,1206.6,1215.3,1205.8,1196.9,1207.7,1218.5,1245.5,1284.4,1331.4,1434.5,1537.5,1641.5,1745.9,1832.3,1862.2,1892.2,1884,1866.8,1829.8,1760.5,1691.2,1605,1517.9,1438.1,1364.8,1296.5,1264.7,1232.9,1191,1144.9,1110.9,1104.4,1098,1133.6,1173.5,1166.9,1116.1,1069.5,1052.4,1035.2,1024.2,1015.4,1023.6,1062,1100.4,1117.1,1133.6,1147.8,1160.5,1167.9,1160.2,1152.4,1138,1122.8,1138.5,1179.6,1223.7,1279.4,1335.2,1429.7,1530.6,1707,1951.7,2243.6,2729.6,3215.6,3825.2,4453,5033,5574.1,5994.3,6027.9,6061.5,5761.4,5436.1,4932.9,4323.9,3736,3190.9,2654.6,2341,2027.4,1796.3,1592.4,1440,1345.1,1268.3,1264.4,1260.5,1212,1160.1,1166.5,1202.3,1219.1,1208.3,1197.7,1187.9,1178,1215.3,1257.3,1308.5,1364.2,1473.6,1653.1,1814.2,1904.4,1994.7,2095.8,2197.1,2276,2348,2391.2,2411.2,2418.1,2400.5,2369.2,2259.6,2149.9,2012.8,1874.4,1746.3,1621.3,1574,1581.8,1577.8,1556.7,1533.4,1503.1,1484.2,1606.5,1728.9,2069.2,2429.3,2942.5,3502.9,4052.5,4595.5,4961.3,5133.9,5222.3,5150.5,4999.1,4560.3,4107.4,3519.9,2932.4,2722.9,2521.5,2365.2,2215.8,2107.1,2010.9,2005.4,2044.9,2015.1,1934.5,1838.5,1726.7,1624,1534.4,1462.2,1423.7,1351.7,1191,1055.1,1011.4,962,882.8,808.8,776.8,751.3,814.5,876.3,898.3,919.9,862.5,805,777.5,750.6,722,693.3,711.1,731.1,695.6,657.2,627.6,598.5,638.5,681.3,659.7,636.4,695.6,752.8,707.2,664.1,663.8,665.1,680.7,684,612.8,569.7,642.2,676.8,599.6,557,588.2,585.2,528.9,501.7,507.6,508.1,504.3,530,572,581.8,580.4,500.5,406.2,306.8,221.7,328.5,412.3,400.3,386.3,368.2,351.4,336.1,385,476.7,550,617,607.2,591.2,604.7,621.4,648.6,662.6,657,647.1,634.2,590.5,537.5,437.5,338.8,255.4,206.4,216.3,254.8,314.1,365.1,408.5,227.8,118.1,215.3,253.9,232.2,305.1,411.8,300.9,225.5,269,303.7,329.9,387.8,452.7,479.5,508.9,543.5,523.2,469.5,528.6,583.9,588.7,613.7,657,593.1,531.2,589.1,624.6,636.2,567.9,491.3,466.8,473,509.8,473.5,421.3,357,371.4,444.5,415.1,398.1,420.8,468.3,518.5,487.4,418.5,309.4,366.8,420.3,410.7,486.7,597.4,698.8,725.6,690.7,771.9,711.5,448.6,449.4,505.4,588.3,679,704.1,494.9,485.8,544.4,495.1,437.8,404.7,565.9,543.2,443.2,612.6,566.4,425.2,541.2,574.9,592,761.8,596.1,359.4,413.6,570.3,616.8,327.4,328.1,305.3,170,376.8,499,528.2,513.8,540,598.4,693.3,574.9,463.5,430.6,901.6,738.1,398.1,606.6,491.8,446.6,533.7,644.9,550.3,450,461.8,473.1
103.7,124.5,98.4,72.3,65.8,89.9,113.9,110.4,96.6,85.6,111.9,138.3,140,106.7,73.4,69.1,73.9,84.5,142.1,199.7,204.9,149.1,93.2,76.3,68,61.8,65,68.3,80.9,101.3,121.7,118.5,113.1,99.1,63.9,28.6,34.8,62.1,87,53.2,19.4,0,0,0,27.7,61.9,87.4,78.5,69.7,54.7,35.5,16.4,46.9,77.6,104.3,125.1,145.9,113.9,69.4,43.7,85.4,127.1,169.3,211.8,250.6,222.4,194.3,200,242.8,285.5,319.1,351.6,384.2,416.9,449.6,448.4,437.2,433.4,456.8,480.2,523.8,577.8,627.7,642.3,657,740.7,878.8,1017,1158.9,1300.7,1394.6,1436.5,1478.3,1463,1444.5,1395.5,1304,1212.4,1120.9,1029.5,998,1068.1,1138.2,1139.2,1128.5,1133,1166.4,1199.7,1242,1286.1,1318.6,1328.3,1338,1332.1,1323.1,1313.2,1301.7,1290.1,1238.8,1180.9,1147.5,1154.9,1162.3,1156.6,1149.5,1151.1,1164.5,1177.9,1186.7,1195.2,1190.8,1172.9,1155.3,1146.7,1138.1,1192.5,1293.3,1389.5,1454.3,1519.1,1603.9,1698,1785.5,1852.3,1919.2,1918,1900.6,1872,1825.1,1778.2,1671.5,1561.9,1483.8,1433.4,1376.3,1270.8,1165.2,1109.4,1073.9,1048.8,1047.3,1045.8,1037.9,1029.3,1042.2,1075.4,1102,1081.6,1061.3,1064.8,1076.7,1078.1,1061.2,1044.3,1111.5,1179.7,1204.6,1202.9,1195.1,1169.7,1144.3,1138,1133.8,1143.7,1165.3,1191,1233.4,1275.9,1359.6,1450.1,1650.2,1949.1,2285.6,2776.3,3267,3921,4599.1,5157.3,5618.1,5968.9,5967.9,5966.9,5734.3,5484.2,5005.7,4391.4,3792.3,3224,2666.1,2369.5,2072.8,1871.6,1701.7,1538.8,1383.6,1254.2,1229.8,1205.4,1194,1183.7,1180.7,1181.4,1167.1,1131,1105.5,1137.1,1168.8,1183.3,1196.1,1249.8,1323.8,1435.6,1596.7,1753.1,1891.6,2030.2,2154.4,2278.4,2368.5,2448.3,2488.6,2496.9,2472.3,2386.2,2298.4,2201.7,2105,2022.3,1940.2,1809.5,1663.9,1584.3,1551.6,1512.5,1464.3,1440.5,1494.7,1555.9,1705,1854.1,2130.5,2418.4,2851,3328.3,3893.4,4512.7,4960.3,5220.6,5311.6,5080.6,4826.8,4490.9,4138.5,3628.2,3118,2794.1,2474.2,2369.4,2297,2245.3,2199.8,2108.4,1994,1948.8,1954.2,1906.6,1804.2,1697,1582.8,1467.9,1351.6,1249.7,1186.1,1123.5,1064,1002.6,930.7,865.3,852.6,838.2,802.3,767.5,764.5,761.7,811.1,860.5,793.4,724,733.4,745.7,692.3,635.8,609.7,585.2,637.4,693.5,649.7,601.7,640.9,682.4,706.3,727.9,655.2,588.2,618.7,642.8,607.1,582.7,626.7,653.5,609.4,568.4,536.7,536.9,605.3,638.2,615.8,606,610.6,566.1,481.9,467.8,492.4,462.3,413,396.9,386.9,423.6,455.8,399,367,438.6,460.2,376.9,336.9,348.5,355.8,360.3,414.6,485.7,476.9,472.9,667.5,798.8,719.1,710.7,807.4,809.1,743.2,618,475.3,472.1,476.1,489.9,447.3,307.9,272,310.8,251.6,171.7,256,310.9,280.2,278.6,307,297.3,274,282,291.7,305.5,321.6,339.9,367.7,402,507.3,538.9,423.2,454.4,574.8,631.2,660.9,615.5,647.2,748.6,743,705.8,610.8,592.5,655.8,579.5,503.3,598.2,529.9,298.6,323,395.4,481.5,516.9,514.5,467.2,392.7,266,399.5,622.9,625.7,531.9,334.8,453.2,553.7,509.1,586.1,670.2,437.9,434,618.7,827,857,635.7,545,480.5,426.6,703.3,896.3,447.1,399.5,516.2,559.5,489.9,385.7,468.5,578.5,688.7,673.5,556.9,405.8,445.9,503.3,542,433.5,452.8,517.5,537,649.1,707.6,570.2,424.1,305.1,228.8,237.8,245.6,270.9,495.4,510.1,437.4,404.7,482,543.1,567.3,863.6,798.3,625.1,742.8,421.8,310.6,527.2,981,785,462,319.8,716.6
5.8,3.1,54.1,105.2,116.3,65.9,15.5,43.3,100.1,150,105,60,37.7,47.8,57.8,73,89.8,100.5,60.9,21.3,8,25.2,42.4,33.7,19.4,8.1,10.9,13.6,26.8,48.8,70.7,85.8,100.3,98.6,56.4,14.3,13,32.8,50.9,31.1,11.4,0,0,0,20.1,44.9,63.6,58.9,54.1,46.5,37.1,27.7,42.9,58.2,78.2,105.3,132.3,131.7,124.4,120.9,130.4,140,160.1,186.4,211.2,210.7,210.1,225.6,258.6,291.6,311.7,330.3,351,375.5,400.1,408.8,412.8,419.5,436.4,453.3,466.8,478.6,493.7,536.8,579.9,694,864,1033.3,1163.2,1293,1374.2,1402.5,1430.8,1441.2,1450.6,1390.3,1232.3,1074.3,1031.3,1002.2,999.9,1043,1086,1132.1,1178.7,1214.6,1230,1245.4,1279.7,1317.7,1340.8,1334.6,1328.5,1270.3,1202.2,1173.9,1220.8,1267.7,1228.7,1175.6,1147.8,1162.1,1176.4,1159.4,1138.9,1134,1150.7,1167.4,1164.9,1161.5,1145.7,1116.9,1091.8,1181.2,1270.5,1339.9,1394.4,1452.5,1534.6,1616.7,1686.8,1751.3,1817.8,1890.9,1964,1958.9,1935.2,1906.6,1869.6,1832.7,1748.1,1661.1,1584.9,1518,1445.9,1334.6,1223.2,1168.8,1137.6,1115.9,1115.8,1115.7,1097.3,1077,1068.6,1071.4,1069.6,1034.4,999.2,991.9,994.5,1010.1,1049,1087.8,1092.1,1095.9,1062.9,1007.4,989.6,1080.4,1171.1,1179.5,1178.8,1188.9,1208,1230.4,1266.2,1302,1396,1499.3,1693.8,1970.6,2303.5,2867.2,3430.9,4004.2,4579,5110.8,5607.7,6017.7,6149.2,6280.8,5960.7,5606.5,5072.6,4432,3812.5,3235.7,2669.3,2361,2052.7,1840.8,1660.6,1505.8,1379.3,1271.5,1239.3,1207.2,1183.6,1160.7,1148.1,1140.6,1129.7,1113.9,1114.7,1205.9,1297.1,1286,1264.7,1309.2,1386.3,1488.7,1624,1755.4,1871.3,1987.3,2081.2,2174.7,2243.5,2304.6,2369,2436.1,2443.8,2340.5,2243.1,2180.4,2117.7,2056.4,1995.1,1866.4,1717.2,1606.7,1523.7,1464.3,1438.8,1439.3,1522.7,1605.8,1685.1,1764.3,2081.5,2420.4,2927,3485.4,4060.1,4644.9,5089.7,5382,5492,5255,4987.5,4610,4211.9,3616.8,3021.7,2726.9,2438.7,2303.1,2190.6,2189.9,2223.5,2191.6,2127.1,2074.8,2031.5,1954.8,1843.3,1735,1631.2,1532.6,1444.3,1338.5,1186,1058.1,1021,977.4,899.6,828.2,807.2,788,791.5,793.3,742.9,692.9,708.6,724.3,729.9,735.4,765.2,796,770.2,741.7,688.9,634.7,634.1,636.3,634.7,633,672.6,713.3,722.4,730.1,678.4,630.7,649.8,664.3,635.6,608.3,588.7,575.8,590.4,579.4,493.6,437.7,445.6,482.8,565.5,602,586.1,585.5,597.2,562.1,501.2,418.1,327.2,347.6,388.4,395.6,402.6,428,444.7,425.4,400.5,363.9,361.8,400.6,465.7,548.3,597.5,635.4,623.9,615.9,738.5,809.7,708.9,659.4,685.2,666.2,615.3,557.7,498,431.8,370.4,334.9,323,351.4,358.4,350,320.3,286.5,296,283.9,208.5,190.6,231.7,239.8,236.2,274.9,319.6,380.8,412.2,414.4,422.7,433.5,460.2,501.5,572.1,533.3,428.1,457,491.4,502,546.4,621.3,605.7,588.4,654.6,696.7,713,547.8,384.5,453.2,501,528,610.9,641.4,437.3,378.7,428.6,401.8,380.5,381.1,445.3,523.9,472.1,383.2,254.6,431.8,571,519.2,348.3,170.8,305.3,449.8,602.6,571.8,436.2,159.1,417.5,673.9,728.6,690.6,609,475.8,628.2,827,618.2,451.2,334.5,401.7,401,409.3,800.7,669.8,286.5,374.8,422.6,451.3,498.9,473.5,403,290.2,417.7,468.5,157.3,133.3,229,425.8,184.8,211.2,467.4,483.9,410.7,321.3,310.2,441.1,364.5,3.4,97.9,171.3,191.7,88.4,223.5,276.3,206.9,190.5,331.5,431.2,366.5,183.6
21,20.2,23.7,27.1,35.1,50.3,65.5,50.5,24.4,0.7,10.7,20.6,22.7,13.3,4,29.8,66.8,95.8,58,20.3,0,0,0,0,0,4.7,30.6,56.5,65.6,60.6,55.6,53.2,51.1,44.2,25.3,6.4,17.5,44,68.3,41.8,15.3,0.2,0.7,1.2,9.8,20.1,29,31.8,34.5,30.6,22.2,13.8,46.4,79,95.5,88.1,80.7,71.5,61.8,68.9,136.1,203.2,209.4,180.3,153.8,171.6,189.5,222.4,271.8,321.2,343.3,362.5,377.4,383.6,389.9,422.7,463.3,494.7,492,489.2,506.7,534.7,565.7,621.2,676.7,778.1,915.6,1053.2,1195.5,1337.7,1412.3,1413.5,1414.7,1426.7,1439.3,1403.2,1298.8,1194.4,1116.9,1042.6,1018.8,1080.3,1141.9,1137,1121,1142.8,1236.6,1330.4,1301.3,1248.4,1232,1287.4,1342.7,1294.8,1227,1187.9,1202.9,1217.8,1207,1192,1183.2,1185,1186.8,1170.6,1152.4,1148.8,1165.1,1181.3,1179.6,1177,1176.7,1178.9,1181.5,1195,1208.6,1256.1,1328.5,1401.8,1481.1,1560.4,1664.5,1780.1,1880.5,1933.2,1985.9,1948.8,1890.4,1828.6,1761.4,1694.1,1662,1631.6,1570.8,1483.3,1397.8,1327.1,1256.5,1201.2,1152.1,1112.1,1092.7,1073.3,1085.7,1101.4,1082.6,1031,988,1005.9,1023.8,1041.9,1060.2,1064.5,1044.4,1024.2,1084.7,1146.2,1137.2,1085.1,1046.3,1045.8,1045.3,1071.9,1101.4,1136.2,1175.3,1211.5,1236.5,1261.5,1350.4,1449.5,1659,1967.8,2320.7,2854.8,3388.9,4084.7,4804.5,5366.1,5799.2,6144,6206.2,6268.4,5941.1,5584.4,5103,4547.5,3959.6,3306,2666,2365.6,2065.3,1859.4,1684.7,1538.3,1423.7,1318.7,1252.8,1186.9,1168.6,1154,1152.4,1157.4,1142.9,1100.2,1067.9,1092.7,1117.6,1181.8,1250,1304.5,1352.3,1448.5,1607.8,1761.2,1891.6,2021.9,2115.8,2208.9,2334.6,2470.2,2507.4,2465.2,2413.3,2343.1,2268.8,2170.3,2071.9,1993,1915.1,1768.2,1600.3,1546.1,1572.5,1583.2,1571.1,1552.9,1515,1488.8,1607.4,1726,2031.7,2354.4,2921,3562.8,4133.9,4661.4,5027.9,5218.9,5303.4,5185.3,5034.4,4765.2,4450.3,3699,2947.7,2741.7,2547.5,2473.7,2418,2305.8,2176.3,2092.4,2031.1,2014.9,2031.9,1978,1851,1716.1,1570.1,1443.6,1354.8,1276.5,1226.1,1167.6,1079.3,1007.7,1025,1028,916.1,814.3,847.7,878.8,841.4,804.1,773.2,742.3,752.4,763.3,736.2,707.6,651.3,593.5,597.7,605.2,599.2,592.5,661.4,733.4,665.4,593.7,609.5,624.4,585.4,551.4,601.2,649.5,682.8,712.6,720.4,722.8,702.6,669.1,596.5,551.3,564.8,569.6,560.7,540.7,508,511.5,544.3,547,533,478.6,410.2,374.7,345.2,359.8,376.4,392.1,405.5,409.5,379.5,277.7,234,259,316.5,395.5,453.9,505.3,484.9,468.2,623.6,747.8,768.3,777.6,770.2,685.5,545.8,520.1,528.3,473.8,413.9,338.6,320,398.3,388.8,316,270.6,232.6,213.6,208.2,242.2,279.3,319.8,303.2,266.1,349.3,394.3,315.6,234.9,152.3,306.2,521.7,614.9,654,585.3,519.8,456.1,553.7,628.4,568.5,571,630,492.5,368.4,517,584.9,567,509.1,470,582.7,554.8,386.4,336.5,341.8,477.4,422.5,225.4,394.3,515.3,486.2,537.4,608.7,532.8,455.9,378,325.8,289.8,285.3,276.9,294.5,509.9,595.1,572.6,714.5,692.4,435,522.7,620.4,613.7,524.8,428.8,396.8,371.3,339.6,262,349.2,509.9,552.1,409.8,207.5,408,457.6,399.5,238.8,240.3,326,378.1,445,487.1,416.6,542.4,631.2,484.9,370.6,298.8,281.4,369,441.5,477.1,331.6,287.2,237.7,32.1,0,117.3,372.8,275.7,289.2,294.5,86.3,79.8,167.2,294.3,201.6,155.2,208.1,398.4,492
0,2.7,46.4,90.2,99.5,55.7,11.9,5,11.8,19.9,45,70.1,79.9,68.1,56.2,64.3,78.7,89.3,68.7,48.2,30.6,16.6,2.5,6.6,14.8,21.4,21.1,20.9,16.5,8.6,0.7,5.4,11.4,20.5,37.9,55.2,64.5,69.8,74.5,68.4,62.3,62.9,72.6,82.3,69.6,51.7,38.7,44.9,51,49.8,43.8,37.7,76.9,116.1,133.4,117.8,102.1,100.2,101.6,107.8,131.7,155.5,168.6,175.5,183,200.9,218.7,252.2,302.7,353.3,358.8,359.5,357.4,349.5,341.7,352.1,367.9,390.2,436.5,482.8,523.1,560.3,596.1,620.6,645.1,722,840.2,959.4,1137.5,1315.5,1454.6,1551.4,1648.2,1580.5,1503.4,1400.2,1260.5,1120.8,1098.2,1089.8,1088.3,1098.7,1109,1131.7,1156.5,1188.7,1235.3,1281.8,1274.8,1257.3,1254.5,1280.4,1306.4,1314.8,1319.9,1325.1,1330.6,1336.1,1285.1,1224.8,1193.5,1210.4,1227.3,1227.5,1225.8,1224.8,1224.9,1225,1204.1,1182.3,1182.6,1206,1230.6,1291.6,1352.6,1395.9,1426.1,1462.5,1541.2,1619.8,1735.8,1869.1,1968.5,1961.9,1955.3,1936.3,1914.3,1882.9,1836.1,1789.2,1721.8,1653.4,1572.6,1480.9,1390.1,1306.7,1223.3,1171.8,1133.3,1104.5,1097.5,1090.5,1080.4,1069.9,1059.5,1049,1044.6,1083.1,1121.6,1097.9,1052.4,1045.8,1107.6,1169.5,1147.3,1124.2,1101.6,1079.4,1074,1116.9,1159.8,1159.7,1154.9,1176.8,1220.6,1261,1288.1,1315.2,1412,1519.9,1722.7,2010.9,2355.5,2931.4,3507.3,4206,4922.8,5512.1,5997.8,6399.3,6531.2,6663,6234.9,5764.6,5176.5,4518.5,3911,3406.3,2906.4,2528.2,2149.9,1898,1687.6,1532,1437.6,1360.1,1351.4,1342.7,1267.7,1187.6,1175.3,1197.1,1219.3,1242.1,1255.3,1216,1176.6,1223.4,1278.8,1345.9,1418.7,1511,1628.5,1756.8,1926.7,2096.7,2203.7,2309.6,2342.7,2353.4,2393.2,2456.5,2485.4,2449.8,2402,2284.1,2166.2,2047.8,1929.4,1845.8,1772.9,1725.4,1695.9,1643,1556,1502,1552.9,1608.4,1721.6,1834.8,2024.6,2221.3,2812,3523.9,4216.9,4898.3,5337.6,5513.1,5569.8,5400.7,5188.4,4819.7,4424.6,3777.2,3129.8,2814.8,2507,2410.8,2346.3,2313.7,2290.7,2248.9,2197.7,2158.7,2128.5,2067.7,1975.2,1860,1712.2,1593.5,1530.9,1434.7,1248.8,1094.3,1055.7,1019.7,997.9,970.4,897.8,825.6,760.6,699.8,762.8,825.3,770.1,714.8,762.4,812,799.8,785.3,798.4,812.8,809.3,804.8,750.2,693,679.3,667.4,677.2,687.7,722,754.7,716.1,676.6,621.6,566.9,514.3,470.2,477.8,505.6,616.9,697.3,687.1,682.8,690.7,642.5,506.6,475.8,563.9,610.9,624.8,631.3,633.8,593.7,538.7,531.6,533.2,443.3,358.3,396.1,426.3,425.2,412.7,376.2,361.3,372,367.2,352.2,446.4,577.4,559.6,534.6,643.5,723.5,706.6,715.3,761.7,797.3,825.3,709.4,550.7,510.7,459.8,330,245.9,239.9,302.5,414.7,354.4,254.2,292.7,318,305.2,325.6,380.1,327.7,237.3,307.3,364.1,373.5,365.7,341.3,326.2,320.9,443.4,544.8,604.4,569.9,478.4,580.2,684.3,732.9,727.4,672.8,717.2,755.9,663.4,603.5,578.1,670.4,757.9,676.4,543.3,358.7,463.5,575.9,525.9,440.1,327.5,345.2,371.9,401,492.8,600.9,601.1,558.6,470.5,545.1,580,465.8,454.8,483,479.8,537.6,645.6,544.7,397.6,191.9,381.6,603.8,753.5,631,462.8,428.1,508.2,616.1,605.2,531.7,447.5,525,570.7,566.6,333.3,299.3,391.8,510.7,483.9,401.3,451.4,378.6,279.8,288,522.1,703.4,589.7,612.9,563,367.6,411.9,367.8,266.8,449.6,411.5,295.8,264.3,317.1,343.2,315.7,306.2,385.7,437.9,255.9,276.9,371.6,494.9,489.2,336.9,288.8,500,601.6
1.5,1,17.8,34.6,48.1,56.8,65.4,49.2,23.7,3.4,53.3,103.2,122.6,98.6,74.6,75.3,83.9,91.3,89,86.7,73,46,19,14,13.9,12.8,7.6,2.4,21.3,60.5,99.7,93.9,83.8,71.6,54,36.5,30,29.3,28.1,17.2,6.3,7,23.6,40.2,58.8,77.9,93.8,97.7,101.6,86.9,59.8,32.7,59.4,86.2,98.9,90.5,82.1,99.3,122.5,140.1,137.3,134.6,161.9,206.4,247.9,235.6,223.4,219.8,225.9,231.9,283.9,340.7,387.7,415.6,443.5,460.4,474.1,486,491.4,496.8,495.1,489.6,495.2,593.3,691.3,825.7,988.5,1150.3,1251.7,1353.1,1420.3,1450.2,1480.1,1500.8,1520.9,1470.4,1321,1171.5,1108.6,1056.3,1035,1066.3,1097.5,1133.6,1170.4,1222.6,1303.8,1384.9,1345.8,1283.5,1244.7,1252.2,1259.8,1264.3,1268.2,1263.7,1243.3,1222.9,1217.3,1214.3,1225.8,1261.4,1297,1286.5,1270.7,1247.7,1215.1,1182.4,1165.2,1148.8,1134.8,1123.4,1113.7,1158.8,1204,1242.1,1275,1322.1,1467,1612,1717,1803.3,1869.7,1874,1878.2,1871,1861.2,1836.6,1787.9,1739.3,1676.3,1612.6,1543.2,1468.7,1396.9,1344.5,1292.1,1245.7,1201.7,1167.4,1155.1,1142.8,1134,1125.6,1104,1069.8,1045.2,1088.2,1131.2,1109.2,1064.4,1058.4,1120.9,1183.4,1177.5,1170.8,1179.7,1198.2,1210.3,1204.2,1198,1181.2,1163.3,1168.8,1193.7,1227.4,1295.4,1363.4,1465.5,1573.1,1761.8,2023.7,2326.8,2799.3,3271.8,3867.5,4481.4,5116.2,5768,6264.1,6262.4,6260.6,5917.7,5549,5091.8,4581.9,4039.6,3431.2,2832.9,2484.7,2136.4,1926.2,1761.4,1585.6,1397.5,1259.5,1325.5,1391.5,1327.9,1254.2,1220.6,1207.2,1195.4,1185.7,1180.7,1200.5,1220.3,1265.9,1314,1420.4,1555.6,1680,1790.2,1909.5,2064,2218.5,2233,2245,2343.2,2467.8,2510.2,2486.3,2465.9,2451.7,2420.1,2288.7,2157.3,2059.3,1962.9,1886.8,1816.9,1774.8,1752.5,1713.7,1650.8,1608.3,1630.9,1659.3,1759.5,1859.8,2135.4,2426.9,2929.5,3497.1,4060.6,4621.7,4998.8,5175.4,5285.3,5268.4,5170.6,4780.1,4360.5,3661.7,2962.9,2724.1,2495.2,2414.9,2356.9,2309.2,2264.6,2236,2215.3,2194,2172.2,2080.3,1916,1790,1718.5,1627.8,1499.6,1381.7,1291.2,1203.2,1124.4,1050,999.4,951.4,925.4,900.3,887.7,875.2,864.8,854.6,853.4,852.2,838.8,825.2,787.9,749.6,731.1,713.5,677.5,640.5,686.2,736.2,738.4,738.7,645.2,549.2,641.7,731.6,667.6,608.2,626.4,640.4,615.3,595.7,609.2,618.1,607.4,597.9,591.9,587.2,585.1,576.7,558.4,553.8,564.8,538.9,483.2,530.3,634.3,652,639.7,548.8,443.4,505.1,562.1,451.9,377.5,452.5,488.2,441.5,425.5,445.9,478.7,519.8,577.9,641.7,670.1,692.3,679.1,673.3,692.2,687.5,648.1,603.3,554.9,529.3,510.6,499.5,479.9,415.4,358.3,314,312.7,342.3,320.3,284.7,219.5,165.2,142.5,197.5,332.3,406.1,458.1,394.6,338.5,310,295.6,295,440.3,615.4,562.8,553.6,631.3,679.8,710.7,568.6,468.6,576,623.3,616.2,688,747.4,660.5,652.4,728.1,641.5,541.4,564.8,514.2,389.9,399,445.3,544.5,519,400.4,453.3,419.1,176.1,245.7,418.6,282.1,263.7,371.7,534.9,633.2,555,503.1,460.2,404,452,586.1,495.9,422.3,379.1,518.4,639.4,652.2,597.9,513.4,396.8,489.1,632.6,563.9,530.3,529.5,620.1,555.4,408.7,361.3,443.3,579.9,545.9,455.3,366,447,478.9,502.1,573.6,596.3,534.5,311.5,392.5,448.8,386.9,365.5,333,304.3,413.9,444.5,397.5,235.6,393.2,434.2,252.9,169.7,175.4,206.5,162.7,545.3,669.7,432.4,89.6,0,254.1,917.2,518.6
77.2,82.2,50.6,19.1,4.7,16.7,28.7,53.7,83.4,108.3,66.4,24.6,18.4,63.2,107.9,117.1,115,110.8,88.7,66.7,45.3,24.5,3.7,36.1,80.1,116.7,119.4,122,105.2,72.2,39.2,56.7,79,91.3,78.4,65.4,61.4,62,61.9,46.2,30.4,20.9,19.8,18.6,37.2,60.4,74.4,52.4,30.5,16.7,8.3,0,49.3,98.8,126.2,120.6,115.1,130.2,150.3,171.4,195.7,220,244.3,268.7,289.6,249.6,209.6,203.4,234.1,264.9,285.2,304.5,332.3,376.8,421.2,450.3,474.9,501.7,536.4,571.1,594.1,611,627.6,641.9,656.1,768.9,959.3,1148.9,1295.9,1443,1512.7,1498.2,1483.7,1482.1,1481.3,1432.9,1317.9,1202.9,1158,1121.7,1123.4,1189.6,1255.8,1250.8,1233.8,1256,1352.8,1449.5,1449.1,1429.9,1414.1,1404.8,1395.5,1423.9,1459.5,1477.9,1463.9,1449.9,1406.1,1357.5,1335.5,1357.9,1380.4,1391.3,1400.9,1384.5,1332.6,1280.7,1295.4,1313.2,1329.3,1343.6,1357.7,1366.2,1374.8,1384.5,1395.1,1419.6,1540.1,1660.6,1755,1837.2,1909.6,1951.3,1993,1991.7,1980.2,1944.5,1869,1793.5,1722,1650.7,1597.1,1559,1519.2,1467.1,1414.9,1363.7,1312.8,1284.1,1305.6,1327.2,1292.6,1252.3,1215.8,1182.8,1160.1,1210.7,1261.3,1271.3,1267.1,1278.1,1316,1353.9,1321.8,1288.9,1265.5,1247.9,1240.6,1263.1,1285.5,1312,1339,1354.3,1360,1379.7,1454.4,1529.2,1619.5,1712.4,1901.9,2178.6,2498.1,2993.6,3489.2,4104,4736.5,5345.3,5934.8,6382.8,6377.7,6372.7,5979.5,5557,5072.1,4550.2,3990.6,3354.4,2735,2538.1,2341.2,2120.8,1892.8,1727.8,1633.3,1550.5,1514.9,1479.4,1409.4,1336.9,1331,1358.8,1377.4,1382.7,1388.2,1394.9,1401.6,1427.7,1455.7,1522.4,1608.2,1713.9,1845.6,1965.8,2041.8,2117.9,2258,2399.2,2454.8,2484,2535,2603.4,2596.7,2449.2,2313.6,2245.8,2178.1,2067.8,1955.4,1846,1737.5,1704.2,1724.2,1687.2,1567.7,1500,1597.4,1695.4,1801.3,1907.2,2224.9,2561.9,3083.2,3661.4,4216.7,4758,5072.1,5138.7,5171.6,5140.5,5019.9,4575.6,4116.9,3520.3,2923.6,2669.5,2422.8,2339.3,2280.3,2290.8,2322.5,2235.1,2088.5,2045.8,2079.2,2058,1980.4,1872.6,1721.9,1581,1459.3,1358.5,1313.4,1258.1,1165.1,1087.6,1092.2,1085.7,990.1,900.6,893.3,888.6,961,1032.8,947.1,861.5,846.6,833.1,799.6,765.4,756.5,748.8,690,628.4,646.1,667.7,666.2,663.7,665.4,667.1,674.1,679.1,601.3,533.4,631.7,716.5,673.7,631.8,595.4,571,596.4,617.7,627.4,642.4,668.7,630.1,490.3,433.6,471.1,539.9,634,658.3,643.9,564.9,463.4,405.6,355.8,315.8,283.8,350.7,407,418.6,427.1,429.3,433.7,440.7,415.5,368.8,433.6,535.9,581.9,621.9,661.2,679.2,626.1,620.1,683.4,712.7,717.7,570.8,378.8,383.1,391.4,382.6,376.2,373.9,294.1,158.2,157.5,191,231.5,275.4,329.1,384.2,440.8,470.6,490.7,411.7,335.9,274.2,333.1,509.3,570.1,599.7,665.9,684,605.8,539.8,481.3,565.5,639.2,628.9,598.4,549.5,584.5,634.9,680.9,641.1,510,484,495.8,584.7,595.6,528.6,436.7,365.4,388.3,414.7,443.6,409.6,402.2,460.1,513.8,566.8,631.1,631.4,563.3,436.7,394.7,577.6,587.5,533.8,547.2,518.8,455.7,563.4,615.2,583.2,545.5,545.1,630.7,672.8,667.1,542.7,618.9,760.3,780.1,640.4,444.2,461.5,573.1,722.8,723.7,601.9,436.1,486.4,506.5,482.3,316.5,446.1,608.7,409.7,391.5,494.1,742.7,600.6,476,482,221.8,322.7,693.7,479.6,549,667.8,532.8,335.3,149.8,7.7,224.6,493,719.8,732.4,999.7,880,358.7,299.3,130.2,119.4,436.9,634.5
44.4,56.3,60.8,65.3,64.7,56.1,47.5,42.3,38.3,33.7,20.7,7.7,8.5,29.3,50.1,45,31.8,23.4,54.8,86.3,85.2,46.1,7.1,35.6,79.1,111.7,95.2,78.8,61.9,44.8,27.6,38.2,51.5,54.3,31.1,7.9,21.6,54.3,84.4,53.2,22,17.9,50.5,83.2,101.8,117,122.4,88.9,55.5,43,44.8,46.5,71.3,96.1,119.3,140,160.8,156.5,146.3,137.4,133,128.6,141.4,164.1,186.9,212.4,237.9,246.2,235.7,225.2,220.5,216.3,225.4,260.7,296,299.3,293.2,292,308.7,325.3,363.7,413.3,457.7,458.1,458.6,543.2,694,843.5,919.3,995.2,1041.6,1056.1,1070.6,1079.4,1088,1050.3,947.9,845.5,818.3,800.2,801.8,836.6,871.4,901,929.6,965.4,1014.7,1064.1,1058.7,1042.9,1044.2,1079.6,1115,1113.9,1105.8,1085.6,1042.4,999.3,978.2,960.7,939.6,912.7,885.9,885.2,887.6,880.5,860.6,840.8,871.2,904.2,915.3,903.9,893.3,911.6,929.8,957.6,992.4,1028.4,1071.9,1115.4,1165.6,1219,1259,1257.2,1255.3,1265.2,1277.8,1261.2,1196.6,1132,1120.1,1110.8,1091.4,1063.2,1034.4,1000.8,967.2,926.4,882.7,855.7,866.6,877.5,901.4,926.7,928.3,907.6,886.9,866.2,845.4,843.7,848.8,880.3,958.6,1036.9,1015.9,993.7,991.7,1001.9,1015.3,1037.8,1060.4,1046,1027.5,1018.7,1017.8,1031.2,1100.7,1170.2,1203.5,1230.9,1341.4,1526.7,1728.9,2000.7,2272.6,2605.6,2947.6,3256.2,3537.6,3760.7,3796.9,3833.2,3581.1,3307.2,3003.4,2681.8,2357.4,2027.3,1706.1,1607,1508,1415.6,1325.5,1229.7,1127.7,1054.6,1099.2,1143.8,1089.3,1027.3,983,947.6,945.6,992.2,1034.9,1056.6,1078.3,1093.6,1108.2,1111.3,1108.7,1148.4,1243,1339.9,1445.8,1551.6,1519.5,1484.9,1565.2,1680.9,1710.8,1671.7,1618.8,1539.9,1469,1443.5,1417.9,1360.9,1302.4,1274.8,1256.6,1229.3,1195.5,1171.7,1162.5,1154.3,1149.2,1149.8,1222.2,1294.7,1481.5,1678.7,1983.4,2321.1,2637.5,2940.7,3070.9,3012.6,2933.6,2815.3,2686.3,2518.5,2340.7,2067.1,1793.4,1622,1452.8,1426,1420.5,1440.7,1468.9,1415.9,1322.8,1252.7,1199.6,1137.5,1066.2,1013.4,987.1,950.1,892.4,829.2,751.8,687.8,673.7,656.9,625.7,599.1,609.1,617.8,609.7,601.9,601.6,601.1,553.7,506.3,513,520.9,501.9,481.9,503.7,527.6,484.8,438.6,415.1,392.9,454.9,520.4,498.1,473.5,429.1,384.8,350.1,320.6,378.2,424.5,364.7,313.8,317.1,325.8,357.3,373,342.3,318.7,309.9,334,409.2,438.2,414.6,381.2,339.9,314.1,296.9,276.5,255,186.7,109.8,135.1,167.1,224,271.8,282.1,297.8,325.1,317.8,269.5,256.7,267.7,302.1,344.3,342,333.7,307.5,272.6,208.4,214.5,324.2,370.2,370.8,271.6,142.7,248.9,331.9,249.8,201.7,211.5,217,219.3,276,344.1,326.6,305.3,273.1,232.6,183.5,175.6,182.4,162.3,131.7,69.2,62.3,109.5,199,294.1,270.2,274.2,334.3,309,231.8,279.2,321.9,307,290.4,272.2,223.3,186.2,243.4,289.7,324.2,182.5,66.1,301,388.9,330,282.2,244,234.1,225.6,217.9,316,366.5,301.1,297.6,331.9,482.5,465.7,270,110.1,41.8,185.4,350.7,486.2,343.3,231.4,144.9,190,203.3,167.9,343.3,459.8,366.9,345.1,320.9,211.9,178.3,218,458.4,434.1,294.3,361,452.9,569.2,752.9,539.4,175.1,450,489.9,399.3,312.6,204.4,111.8,109.9,188,242.9,182.6,78.8,78.5,243.9,346.4,537.9,757.2,475.2,342.4,350.2,556.7,644.7,567.8,320.8,455.9,557.7,523.6,135.6,417,666.2,776.5,962.3,601.5,189.6,26.3,551.5
3.7,1,17.8,34.6,43.4,40,36.7,25.9,12.5,2.2,34.1,66,89.8,102,114.1,112.1,105.6,99.5,96.5,93.5,75.9,41.1,6.3,19.9,44.3,68.1,89.3,110.6,110.1,91.4,72.8,103.6,139.1,149.6,97.5,45.4,33.1,41.2,48.3,32.1,16,5.6,3,0.5,9.2,20.6,31.4,39.5,47.7,60.9,77.5,94.2,106.9,119.6,119.8,101.3,82.8,92.3,108.5,117.7,102.2,86.7,76.6,69.6,64.6,93.8,123,149.4,172.7,196,194.7,190.8,190.7,198.2,205.7,235.1,270.8,303.5,325,346.6,364.7,381.1,396.4,403,409.6,466,561.6,657,742.9,828.8,876.4,882.6,888.7,900.9,913.5,895.2,833.6,772,746.1,724.6,710.2,708.2,706.1,739.9,779.7,805.9,806.5,807,826.7,850.1,864.9,862.4,860,859.3,858.9,857.9,855.4,853,836.7,818,808,812.3,816.6,824.8,833.4,835,827.2,819.3,804.8,789.9,780.8,778,774.3,745.1,715.8,743.1,811.9,880.3,946.3,1012.3,1059.2,1097.3,1135.6,1174.6,1213.5,1200.3,1174.6,1148.1,1120.2,1092.3,1025,955.8,926.2,931.1,926.3,850,773.7,765.4,784.7,795.9,788.5,781.2,773.9,766.7,754.2,736.8,721.9,725.3,728.7,720.5,708.3,708.7,731.2,753.8,765.1,776.3,760.1,727.1,709.1,733.7,758.3,776.2,793.4,820.9,856.7,886.4,891.9,897.3,928,962.8,1061.7,1218.4,1411.4,1753.3,2095.2,2449.1,2804.8,3143.6,3468.7,3751.9,3901,4050.1,3846.5,3616.2,3260.2,2829.6,2428.5,2087.4,1751.3,1543.3,1335.2,1184.4,1052.5,958.5,906.8,859.8,831.9,804,788.5,774,795.7,835.8,849.1,823.4,798.5,777.3,756.2,794.7,839.1,860.2,869.6,901.9,964,1033.4,1131.2,1229,1299.5,1369.5,1381.4,1375.5,1395.4,1436.3,1452.5,1422.5,1382.3,1283.9,1185.4,1155.5,1128.9,1046.6,947.3,918.8,940.6,948,934.6,930.1,953.8,976.3,982,987.8,1177.4,1383.6,1651.6,1938.5,2176.1,2383.2,2555.4,2689.4,2766,2733.5,2647,2365.4,2086.9,1838.9,1590.8,1508.2,1429.1,1412.1,1404.5,1293.3,1150.4,1073.3,1029,1051.7,1123.7,1126.6,1058.3,1006.4,977.9,926.6,831.3,740.7,662.4,596.8,577.7,559,542,526.5,522.4,518.7,520.1,520.5,495.2,470.2,513,555.9,521.9,486.4,479.3,473.3,449.2,424.3,395.4,366.4,358.4,351.6,351.4,351.4,319.4,286.6,333,378.6,373.7,370.3,390,396,273.2,181.9,280.5,361.5,369.5,368.9,342.8,335.6,368.9,368.1,314.1,314.9,377.8,384.7,346.4,326.9,317.7,255.9,175.8,270.7,398,336.6,269.9,252.3,235.4,221.6,217.9,235.6,271.2,328.2,322.2,274,283.4,312.3,319.6,328.8,400.5,441.5,379.5,338.5,328.2,363.5,431.4,382,297.8,241.5,187.9,142.9,151.9,253.1,252.3,177.9,144.4,122.5,162.2,207.2,267.9,294.1,284.9,257.3,223.1,222.9,219,202.6,193.5,191.5,251.6,326,336,337.7,323.2,307.9,292.3,391.6,476.6,472.8,466.3,457.4,417.6,382.8,406.7,382.9,308.5,359.5,423.4,404.6,393.1,388.8,410.5,376.3,112.7,83.7,229.8,277.7,297.2,268.7,219.4,180.1,333,408.1,400.3,393.1,367.6,296.9,339.3,400.4,253.6,308.3,529.6,462.1,372.3,260.2,252.7,291.1,393.9,469.9,487.2,330.8,393.1,530.3,553.4,518.3,447.7,353.8,335,369.5,459.5,429.1,322,196.7,160.3,186.7,281.7,293.3,295.7,401.1,243.6,122.9,287.2,143.2,51.3,119.5,212,394.7,591.4,180.1,127.1,232.9,298.3,280.1,313.5,429,433.3,386.7,270.9,32.6,338.5,546.6,534.2,328.7,332.8,307.3,110.1,62.8
33.7,53.3,74.7,96,103.9,91.3,78.7,81.1,89.1,97.3,108.2,119.1,136.4,163.1,189.8,179.1,156.6,133.2,103.6,74,47.9,25.9,4,4.7,10.5,14.2,8.4,2.6,3.9,11.1,18.3,42.4,68.1,87.3,90.3,93.3,79.1,56.1,33.5,20.5,7.5,1.7,5.7,9.8,7.6,4.1,1.2,0.7,0.2,1.2,3.1,5,35.2,65.4,81.6,76.6,71.6,91,116.3,130.9,107.5,84.1,87.7,106.8,126.9,164.6,202.3,230.7,248.9,267.1,279.8,292,310.8,342.8,374.8,398.3,419.2,441,465.6,490.2,493.4,485.4,482.8,525.5,568.2,665.9,806.8,947.1,1046.7,1146.4,1222.3,1272.5,1322.6,1327.1,1328.9,1282.5,1168.8,1055,991,933,908.7,941.4,974.1,987.6,997.8,1028.9,1099.7,1170.5,1186.4,1191.8,1199.5,1211.7,1224,1191.3,1150.1,1135.9,1173,1210,1167.9,1112.7,1079.8,1084.2,1088.6,1081.1,1072.3,1059.1,1039.8,1020.5,1031.2,1043.3,1058.7,1077.5,1095.9,1101.4,1107,1140.5,1194.6,1250,1313.7,1377.5,1453,1534,1603.5,1637,1670.6,1693.3,1713.5,1708.6,1662.4,1616.1,1566.5,1516.7,1434.8,1324.8,1219.9,1152.7,1085.5,1062.6,1057.8,1047.2,1023.3,999.4,993.1,988.7,974.8,951.9,931.9,932.6,933.4,965.8,1009.3,1041.4,1053.4,1065.4,1071.8,1078.2,1058.6,1023.1,991.9,973.1,954.3,1002,1056.9,1085.6,1092.8,1112.2,1179.7,1247.2,1324.2,1402.8,1553.8,1770.1,2037.9,2517,2996.1,3528,4067.8,4611.2,5157.6,5573.7,5572.4,5571.1,5312.8,5035.1,4560.8,3969.6,3404.7,2893.3,2391.8,2135.8,1879.9,1669.5,1474.1,1317,1202.7,1112.3,1118.7,1125.1,1095.9,1063.9,1032.1,1000.5,977.5,967.3,957.5,950.3,943.2,994,1050.6,1120,1195.7,1290.6,1410.7,1532.9,1663.6,1794.2,1843.6,1891.5,1962.2,2039.9,2074.5,2074.4,2063.5,2032.7,1992.6,1899.2,1805.7,1687.6,1568.3,1459.7,1354.3,1300.8,1284,1265,1242.9,1215,1169.1,1136.9,1274.4,1412,1641.7,1879.9,2263.4,2691.6,3148.2,3622.3,3919.5,4023.9,4058.2,3959,3817.7,3524.1,3217.8,2791.8,2365.8,2154.6,1948.1,1858,1785.4,1760.8,1750.8,1725,1691.3,1666.3,1647.7,1582.5,1469.2,1396.4,1381.2,1325.7,1192.2,1079.5,1022.4,963.1,895.1,829.9,779.1,731,704.8,680.7,685.5,691.6,735.8,779.5,699.9,620.4,637.6,656.6,649.4,641.2,621.6,601.4,507.4,409.6,442.5,482.1,531.9,582.2,560.5,536.9,554.3,570.9,545.2,519,484.2,458.1,513.4,555.1,514.7,489.2,525,527.4,431.3,381.4,429.9,458.2,454.7,460.1,475.4,418.7,303.8,310.3,384.1,442.3,495.1,484.7,462.8,350.3,246,306.4,351.9,334.9,310.9,272.3,274.8,326.2,292.7,202.4,244.4,331,395.6,452.6,431.5,419.3,436.7,470.7,529.2,527.4,482.6,432.5,380.8,348.1,308.3,227.5,165.6,136,180.7,279.1,287.5,271.7,194.7,144,170.1,198.5,229.1,280.8,340,320.3,298.4,272.9,239.2,197.7,189.8,200.6,377,488,468.4,403.1,310.2,460.1,559,395.6,429.5,642,484.5,314.6,456.8,505,453.3,454.6,481,579.8,559,419,399.7,385.8,312.7,335.3,429.5,464.5,464.6,397.7,248.1,92.5,237,347.4,421.3,316.3,202.9,126.6,211.4,353,416.4,449.8,458.4,543.5,561.5,482.7,507.3,513.4,439.9,480.6,497.5,310,358.7,469.9,364.7,305.8,292.7,416.5,511.6,572.2,505.1,491,504.2,482.7,430.8,379.9,422.6,414.6,395.7,420.7,408.4,422.7,527.5,298.7,256,579.7,408.8,417.6,588.1,598.3,315.4,82.8,405.4,565.3,622.4,571.9,151.6,285,652.3,782.4,495.5,453.4,747.6,1068.8,528.8,236.3,852.3,432.3
